ply
format ascii 1.0
element vertex 707
property float x
property float y
property float z
property uchar red
property uchar green
property uchar blue
property float nx
property float ny
property float nz
end_header
2.2817 -1.1615 -0.0206783 28 38 36 -0.115777 0.263129 0.957789 
2.31633 -1.1619 -0.0368626 30 37 34 -0.24046 -0.927488 0.286262 
2.3345 -1.16667 -0.0300327 33 45 43 0.896107 -0.442655 0.0323894 
2.351 -1.16905 -0.0251489 31 42 43 0.246035 0.181852 0.952049 
2.37048 -1.16942 -0.024891 32 43 38 0.0766937 0.00852152 0.997018 
2.39021 -1.16941 -0.0268004 33 44 44 0.0779959 -0.0259986 0.996615 
2.41009 -1.17 -0.0271827 34 45 46 -0.0247647 -0.0412744 0.998841 
2.42966 -1.16983 -0.027112 35 47 49 0.00787353 -0.00787353 0.999938 
2.44985 -1.17013 -0.0274063 38 48 55 0.0419428 0.0419428 0.998239 
2.46984 -1.16976 -0.0287393 42 51 56 0.0793175 0.0440653 0.995875 
2.49015 -1.17019 -0.0300435 38 48 52 0.059668 0.04262 0.997308 
2.50999 -1.16987 -0.0306718 42 51 57 -0.00799949 -0.00799949 0.999936 
2.53005 -1.16967 -0.0293716 46 56 62 -0.0957068 -0.308389 0.946434 
2.55001 -1.17137 -0.0296149 48 59 70 0.0323592 -0.485389 0.873699 
2.56873 -1.17017 -0.0292259 43 55 64 0.032979 -0.494685 0.868447 
2.59043 -1.17184 -0.0320138 37 48 55 0.126632 -0.126632 0.983834 
2.6104 -1.17194 -0.0351999 37 47 55 0.15685 0.0276795 0.987234 
2.63027 -1.1713 -0.0377863 40 49 59 0.0793175 0.0440653 0.995875 
2.64993 -1.17168 -0.0387967 39 48 61 0.0247782 -0.0247782 0.999386 
2.66977 -1.17166 -0.039299 41 50 55 0.0259597 -0.0951855 0.995121 
2.69023 -1.16617 -0.0391327 48 58 69 0.026774 -0.13387 0.990637 
2.7081 -1.16548 -0.0396471 34 45 50 0.0626325 -0.0984224 0.993172 
2.93169 -1.17806 -0.0268857 39 42 60 -0.233116 -0.478501 -0.846578 
3.46886 -1.17025 -0.0304722 70 85 106 -0.995875 0.0793175 0.0440653 
1.67475 -1.15756 -0.0219765 39 58 57 -0.582448 -0.0571028 0.81086 
2.21873 -1.14332 -0.0200782 22 35 37 0.162244 0.0858937 0.983005 
2.23052 -1.14982 -0.0207767 29 40 45 0.0412744 0.0247647 0.998841 
2.25004 -1.14985 -0.0213901 27 39 41 0.0419428 -0.0419428 0.998239 
2.26999 -1.14968 -0.0224315 28 40 45 0.0406155 0.0081231 0.999142 
2.2894 -1.14942 -0.0226032 32 43 49 0.00890482 0.151382 0.988435 
2.3103 -1.14914 -0.0236017 34 44 49 0.0482131 0.22178 0.973904 
2.33057 -1.14873 -0.023749 38 47 50 0.00933846 0.196108 0.980538 
2.35079 -1.14919 -0.0246168 36 45 49 0.00799744 -0.0239923 0.99968 
2.37038 -1.14927 -0.0243628 34 44 47 0.05872 0.00838856 0.998239 
2.39001 -1.14987 -0.0269254 34 44 45 0.0951855 0.0259597 0.995121 
2.40983 -1.15018 -0.0272233 35 46 47 -0.00799744 0.0239923 0.99968 
2.42999 -1.15008 -0.0277093 37 48 48 0.0251586 0.0587034 0.997958 
2.44991 -1.14987 -0.0279086 37 47 52 0.00787353 0.00787353 0.999938 
2.46971 -1.15004 -0.0289491 38 49 53 0.0766714 -0.0255571 0.996729 
2.49021 -1.15009 -0.0302735 39 50 54 0.0587034 -0.0251586 0.997958 
2.50999 -1.15013 -0.0291634 43 54 59 -0.262432 -0.136465 0.955252 
2.52511 -1.15424 -0.0236976 56 66 73 -0.555323 -0.501145 0.663679 
2.57586 -1.15813 -0.021888 42 38 55 0.437134 -0.622585 0.649078 
2.59103 -1.15514 -0.0318383 43 52 54 0.392417 0.145755 0.908165 
2.60838 -1.15439 -0.0377096 20 33 35 0.162478 0.292461 0.942373 
2.63034 -1.15379 -0.0387088 28 39 40 -0.0426572 0.0426572 0.998179 
2.65117 -1.15497 -0.0369047 38 49 65 -0.0669038 -0.162481 0.984441 
2.66922 -1.1544 -0.0370115 29 44 70 0.0272558 -0.136279 0.990295 
2.68892 -1.15436 -0.0383303 34 43 55 0.0577527 0.00825039 0.998297 
2.70828 -1.15573 -0.0393252 37 47 54 0.100203 0.0637656 0.992922 
2.81561 -1.14983 -0.0248322 30 46 11 -0.705922 -0.705922 -0.0578625 
3.47042 -1.15034 -0.0300201 72 87 105 -0.997214 0.0607 0.0433571 
2.21676 -1.12903 -0.0206618 33 46 44 0.177866 0.0468067 0.982941 
2.2301 -1.1299 -0.0217204 32 42 48 0.0251799 0.0419665 0.998802 
2.25027 -1.12994 -0.0217428 33 43 48 -0.00825039 0.0577527 0.998297 
2.2697 -1.12986 -0.0224052 33 45 49 0.0597027 0.0255869 0.997888 
2.28999 -1.13006 -0.0236131 36 46 52 0.0406155 -0.0081231 0.999142 
2.31008 -1.13002 -0.0245133 37 48 51 0.0597027 -0.0255869 0.997888 
2.33001 -1.13 -0.0254086 37 47 49 -0.00799744 0.0239923 0.99968 
2.35017 -1.12981 -0.0246383 34 44 47 -0.0419665 0.0251799 0.998802 
2.37006 -1.13 -0.0248191 36 46 48 0.0754122 0.00837914 0.997117 
2.38995 -1.13006 -0.0258905 37 46 48 0.00879123 -0.114286 0.993409 
2.40991 -1.12987 -0.0263994 35 46 47 0.0447805 -0.0985171 0.994127 
2.43002 -1.13002 -0.0275617 38 49 52 0.0433051 -0.0779491 0.996016 
2.45002 -1.13017 -0.0278139 37 46 49 0.0243822 -0.0081274 0.99967 
2.46978 -1.13002 -0.0289933 38 48 52 0.0766714 0.0255571 0.996729 
2.48994 -1.13004 -0.0301578 38 47 52 0.0243757 0.0243757 0.999406 
2.50838 -1.13033 -0.0270121 49 59 67 -0.459227 -0.0784046 0.884852 
2.68379 -1.12251 -0.0275886 64 65 78 -0.859356 -0.511262 -0.0108779 
3.03133 -1.12881 -0.0309303 41 40 53 -0.996016 0.0433051 0.0779491 
3.47079 -1.12963 -0.0312519 67 84 100 -0.999113 -0.00825713 0.0412857 
1.69994 -1.10291 -0.029991 37 46 103 -0.635369 0.236706 0.735035 
1.70814 -1.1071 -0.0252197 35 54 62 -0.572101 0.26698 0.775514 
2.1462 -1.10844 -0.0381444 40 48 44 0.122429 0.988851 -0.0847587 
2.21214 -1.10815 -0.0206223 38 49 54 0.0779959 0.0259986 0.996615 
2.23003 -1.10984 -0.0218802 38 48 52 0.0577527 -0.00825039 0.998297 
2.24994 -1.10998 -0.0226142 36 48 51 0.0243757 0.0243757 0.999406 
2.27012 -1.11017 -0.0228354 39 49 56 0.00787353 -0.00787353 0.999938 
2.29015 -1.11001 -0.022985 38 49 56 0.00838856 -0.05872 0.998239 
2.31001 -1.11005 -0.0238489 38 49 54 0.0597027 -0.0255869 0.997888 
2.32993 -1.10997 -0.0250249 37 48 48 0.0426572 -0.0426572 0.998179 
2.3501 -1.10993 -0.0251077 38 47 50 -0.0243757 0.0243757 0.999406 
2.36997 -1.10996 -0.024898 37 47 49 0.00799949 0.00799949 0.999936 
2.38997 -1.10991 -0.0251276 37 48 49 0.00825713 0.0412857 0.999113 
2.4099 -1.11 -0.0254096 38 48 50 0.0247647 0.0412744 0.998841 
2.42981 -1.10989 -0.0259541 38 48 52 0.0243822 -0.0081274 0.99967 
2.44996 -1.10988 -0.0272498 37 47 49 0.114251 -0.0263655 0.993102 
2.46984 -1.10991 -0.0294404 38 49 51 0.095214 0.00865582 0.995419 
2.4902 -1.11005 -0.0306884 38 49 53 0.0081274 0.0243822 0.99967 
2.50788 -1.1102 -0.0270178 47 58 64 -0.511021 0.0326183 0.858949 
2.67497 -1.10702 -0.0282543 46 58 64 -0.936671 -0.31957 0.143256 
2.68135 -1.11844 -0.0382989 58 76 93 -0.844725 -0.529361 -0.078841 
2.77188 -1.11122 -0.0386477 24 29 45 0.376631 0.0101792 0.926308 
3.47045 -1.11004 -0.0304074 57 73 95 -0.999113 0.00825713 0.0412857 
1.70892 -1.09443 -0.0234735 34 57 60 -0.581539 -0.0798191 0.809593 
2.19737 -1.08838 -0.0202036 40 51 59 0.0779491 0.0433051 0.996016 
2.21015 -1.0898 -0.021101 38 49 52 0.0607 0.0433571 0.997214 
2.22996 -1.08978 -0.0218593 38 49 53 0.0243822 0.0081274 0.99967 
2.24995 -1.08988 -0.0226323 38 49 53 0.0587034 -0.0251586 0.997958 
2.27028 -1.09004 -0.0229952 37 50 49 -0.0247782 0.0247782 0.999386 
2.29 -1.09003 -0.0221911 39 50 53 -0.0081231 0.0406155 0.999142 
2.3104 -1.08966 -0.0233971 37 49 51 0.0793175 -0.0440653 0.995875 
2.32986 -1.08987 -0.0247168 37 49 51 0.0577527 0.00825039 0.998297 
2.35012 -1.09021 -0.0255128 37 47 47 0.0243757 0.0243757 0.999406 
2.37012 -1.08997 -0.0254805 37 48 48 0.00825039 0.0577527 0.998297 
2.38995 -1.09006 -0.0260952 38 48 50 0.0419428 0.0419428 0.998239 
2.40997 -1.08993 -0.0268882 37 47 48 0.04262 0.059668 0.997308 
2.42996 -1.08997 -0.0272008 37 47 50 -0.00865582 0.095214 0.995419 
2.45007 -1.08995 -0.0274593 38 47 51 0.0779491 0.0433051 0.996016 
2.46989 -1.09003 -0.0295457 36 47 49 0.112324 -0.0086403 0.993634 
2.4899 -1.09002 -0.0313422 37 47 51 0.0247782 0.0247782 0.999386 
2.50836 -1.09032 -0.0271205 47 57 60 -0.562003 0.033059 0.826474 
2.67131 -1.0905 -0.0274973 39 50 61 -0.969438 -0.173478 0.173478 
2.77163 -1.09388 -0.0386763 26 40 23 0.512856 0.0797776 0.85476 
2.8076 -1.08576 -0.0233947 21 57 80 -0.970631 0.23015 -0.0700455 
3.47188 -1.09027 -0.0284596 63 74 77 -0.99095 0.118187 0.063639 
2.15684 -1.06423 -0.0200993 39 50 58 0.0243757 0.0243757 0.999406 
2.16314 -1.06426 -0.0201011 36 48 53 -0.0243757 0.0243757 0.999406 
2.19333 -1.06961 -0.0207838 38 50 53 0.0967933 0.043997 0.994332 
2.21006 -1.06974 -0.0219593 38 50 54 0.0577527 -0.00825039 0.998297 
2.23033 -1.07009 -0.0218632 36 48 51 -0.0406155 0.0081231 0.999142 
2.24995 -1.06993 -0.0217779 34 47 48 0.0597027 -0.0255869 0.997888 
2.26997 -1.06996 -0.0233298 36 48 50 0.0577527 0.00825039 0.998297 
2.29005 -1.06994 -0.0235189 36 47 49 -0.00838856 0.05872 0.998239 
2.31028 -1.07002 -0.0234141 36 48 47 0.0259597 0.0951855 0.995121 
2.33003 -1.06995 -0.0246157 37 48 48 0.05872 0.00838856 0.998239 
2.35001 -1.07002 -0.0255865 37 48 51 0.0406155 -0.0081231 0.999142 
2.3698 -1.0699 -0.0261476 37 48 47 0.0081274 0.0243822 0.99967 
2.39003 -1.06998 -0.0263618 36 47 47 0.0243822 0.0081274 0.99967 
2.41013 -1.07014 -0.0277272 37 46 49 0.11628 0.0268339 0.992854 
2.42993 -1.06975 -0.0291056 37 47 48 -0.0251586 0.0587034 0.997958 
2.44996 -1.06997 -0.0285381 37 46 48 0.00838856 0.05872 0.998239 
2.47008 -1.07002 -0.0297688 38 48 50 0.0968534 0.0264146 0.994948 
2.49007 -1.07009 -0.0320518 36 46 48 0.0779959 0.0259986 0.996615 
2.50911 -1.06967 -0.0279796 56 64 69 -0.63344 0.0575855 0.771646 
2.67 -1.07044 -0.0270829 29 41 50 -0.999142 0.0081231 -0.0406155 
2.77167 -1.07056 -0.0391307 5 40 1 0.577076 -0.0108882 0.816618 
2.89441 -1.06213 -0.0252423 102 112 89 -0.199692 0.979443 0.0285275 
3.0344 -1.06264 -0.0373512 58 72 77 -0.291654 -0.595988 0.748155 
3.05072 -1.06501 -0.0357209 81 93 96 -0.0822052 -0.716359 0.692872 
3.07006 -1.06521 -0.0353213 73 81 82 0.0112007 -0.750444 0.660839 
3.08962 -1.06486 -0.0350032 62 73 76 0.0110358 -0.739395 0.673181 
3.10916 -1.06484 -0.0349177 70 82 83 -0.0112232 -0.707062 0.707062 
3.12968 -1.06492 -0.034875 72 85 86 -0.0112176 -0.684271 0.729141 
3.15044 -1.0652 -0.0344759 61 70 70 -0.0335013 -0.636524 0.770529 
3.16919 -1.0655 -0.0339834 71 81 80 -0.0333849 -0.612056 0.790109 
3.18928 -1.06675 -0.0342221 66 76 76 -0.0333849 -0.612056 0.790109 
3.21002 -1.06691 -0.0336276 66 77 80 -0.0335013 -0.636524 0.770529 
3.22935 -1.0664 -0.0314453 69 81 88 -0.159117 -0.673189 0.722148 
3.24682 -1.07097 -0.0329172 58 67 63 -0.178331 -0.86788 0.463662 
3.26918 -1.06905 -0.0332948 57 61 65 0.261785 -0.785355 0.560968 
3.28813 -1.06587 -0.03388 44 58 49 0.0110358 -0.673181 0.739395 
3.30938 -1.06698 -0.0351782 65 74 73 0.0807054 -0.657172 0.749407 
3.32697 -1.06597 -0.0375583 55 68 72 0.204671 -0.517697 0.830723 
3.34979 -1.06642 -0.035844 53 62 61 -0.258277 -0.504255 0.824027 
3.36971 -1.06832 -0.0334649 58 67 69 0.0336696 -0.572384 0.819294 
3.38966 -1.06673 -0.0365877 64 76 79 0.233679 -0.553451 0.799429 
3.40471 -1.06399 -0.0391828 67 75 111 0.230358 -0.497088 0.836563 
3.47327 -1.06962 -0.0284532 60 68 67 -0.985015 -0.0656677 0.159479 
1.72396 -1.04503 -0.0245235 42 56 76 -0.450536 0.424791 0.78522 
2.15267 -1.04905 -0.0203763 39 52 53 0.0419665 0.0251799 0.998802 
2.16801 -1.04866 -0.0203999 38 49 50 -0.0419428 0.0419428 0.998239 
2.19322 -1.05519 -0.0205037 39 50 52 0.0447805 -0.0985171 0.994127 
2.2117 -1.05085 -0.0208925 38 49 49 0.0792437 -0.061634 0.994948 
2.22988 -1.04994 -0.022015 37 48 51 0.0243822 0.0081274 0.99967 
2.2501 -1.04997 -0.0221607 35 47 49 0.0247647 0.0412744 0.998841 
2.27015 -1.04991 -0.0232803 36 46 47 0.0766714 -0.0255571 0.996729 
2.29009 -1.05023 -0.0242803 36 47 49 0.0412857 0.00825713 0.999113 
2.30992 -1.05007 -0.0256061 36 47 51 0.0617105 0.0617105 0.996185 
2.32991 -1.04988 -0.0260202 34 46 46 -0.00850917 0.0936009 0.995573 
2.35005 -1.05 -0.0258423 36 46 47 0.0251586 0.0587034 0.997958 
2.36997 -1.05009 -0.0267174 36 46 47 0.0247647 0.0412744 0.998841 
2.38997 -1.05004 -0.0268353 36 46 47 0.0081274 0.0243822 0.99967 
2.40985 -1.05001 -0.0277237 36 46 45 0.0766714 -0.0255571 0.996729 
2.43005 -1.04994 -0.0288531 37 46 48 0.0251586 -0.0587034 0.997958 
2.44987 -1.04973 -0.0293601 36 46 45 0.0406155 0.0081231 0.999142 
2.46989 -1.05006 -0.0303159 39 49 50 0.0766937 0.00852152 0.997018 
2.48986 -1.05019 -0.0323054 36 47 49 0.0766937 -0.00852152 0.997018 
2.50868 -1.04917 -0.0283004 51 60 65 -0.632435 -0.0804917 0.77042 
2.52533 -1.04859 -0.037743 137 136 124 0.462978 -0.70108 0.542345 
2.67083 -1.0503 -0.0270089 28 35 42 -0.950238 -0.0300075 -0.310078 
2.68081 -1.05314 -0.0377209 30 27 44 -0.729141 0.0112176 -0.684271 
2.77042 -1.04993 -0.0363666 40 47 45 0.695205 -0.0341904 0.717998 
2.80679 -1.04935 -0.0243444 39 57 58 -0.912459 -0.409033 0.010488 
2.91126 -1.05909 -0.0222242 61 53 65 -0.11628 0.992854 0.0268339 
2.94904 -1.04459 -0.0249551 40 54 68 -0.844725 0.529361 0.078841 
3.01884 -1.04618 -0.0391776 54 63 71 -0.485615 0.0107914 0.874106 
3.03006 -1.04987 -0.0331644 58 69 73 -0.483896 -0.15343 0.861571 
3.04876 -1.04995 -0.0248499 74 88 88 -0.261854 -0.284624 0.922183 
3.07065 -1.04901 -0.0226169 72 86 85 0.0292228 -0.263005 0.964352 
3.09024 -1.04957 -0.0236598 73 86 88 0.0495974 -0.267826 0.96219 
3.10978 -1.05108 -0.0251713 76 89 89 0.0305884 -0.31608 0.948239 
3.13079 -1.05018 -0.0260052 77 90 85 0.0491355 -0.226023 0.972882 
3.15074 -1.0496 -0.0267819 76 88 86 0.0446946 -0.116206 0.992219 
3.1705 -1.05007 -0.0275653 82 96 95 0.0251799 -0.0419665 0.998802 
3.18981 -1.05024 -0.0278988 75 90 81 -0.00799744 0.0239923 0.99968 
3.21011 -1.05094 -0.0271773 90 102 103 -0.0412744 0.0247647 0.998841 
3.22857 -1.04994 -0.0255737 76 91 91 -0.218241 0.135102 0.966498 
3.2469 -1.04386 -0.0215528 61 74 56 -0.408355 0.645464 0.645464 
3.26518 -1.04237 -0.0250149 54 66 56 0.213385 0.715469 0.66526 
3.29152 -1.05415 -0.0255349 38 44 33 -0.161048 -0.246941 0.955554 
3.30653 -1.05015 -0.0285976 40 51 29 0.128751 0.148559 0.980486 
3.33045 -1.05317 -0.0346139 51 60 56 0.25385 0.0710779 0.964629 
3.35089 -1.05438 -0.0321819 49 56 53 -0.333295 0.118266 0.935376 
3.37095 -1.04963 -0.0313022 44 45 39 0.0307551 0.358809 0.932904 
3.39116 -1.05296 -0.031453 57 69 75 0.210916 -0.255319 0.943571 
3.40901 -1.05342 -0.0355458 47 53 48 0.218477 -0.356463 0.908406 
3.42295 -1.04998 -0.0380687 44 51 52 0.288849 -0.288849 0.912761 
3.4671 -1.05105 -0.0326775 51 61 64 -0.84152 -0.314 0.4396 
1.73397 -1.03987 -0.0211679 45 56 58 -0.523622 0.344824 0.779048 
2.15022 -1.03013 -0.0206157 41 53 56 0.0406155 0.0081231 0.999142 
2.17013 -1.03017 -0.0207659 39 50 51 -0.0243822 0.0081274 0.99967 
2.18883 -1.02587 -0.0202412 38 49 50 -0.0247647 0.0412744 0.998841 
2.2107 -1.02945 -0.0210215 39 48 50 0.0968534 0.0264146 0.994948 
2.22987 -1.03001 -0.0223777 38 49 48 0.0412857 0.00825713 0.999113 
2.24999 -1.03006 -0.0226357 36 46 48 -0.00799744 0.0239923 0.99968 
2.26974 -1.03019 -0.0227893 35 45 45 0.0412857 -0.00825713 0.999113 
2.29031 -1.02982 -0.0239528 35 45 46 0.0587034 -0.0251586 0.997958 
2.31005 -1.02978 -0.025663 36 46 47 0.0951855 -0.0259597 0.995121 
2.32999 -1.03001 -0.0269087 35 46 46 0.0243822 -0.0081274 0.99967 
2.35008 -1.03014 -0.0271274 36 45 46 0.0081231 0.0406155 0.999142 
2.36995 -1.02996 -0.0272716 36 44 45 -0.00799949 0.00799949 0.999936 
2.39008 -1.02994 -0.0272864 35 44 43 0.0243757 0.0243757 0.999406 
2.41003 -1.02987 -0.0279325 35 46 45 0.0247647 0.0412744 0.998841 
2.42997 -1.0299 -0.0283331 36 45 44 0.0239923 0.00799744 0.99968 
2.44982 -1.02999 -0.0291182 35 46 45 0.05872 -0.00838856 0.998239 
2.46989 -1.03 -0.0303234 38 47 47 0.05872 -0.00838856 0.998239 
2.48957 -1.02989 -0.0314258 37 47 48 0.00838856 -0.05872 0.998239 
2.50688 -1.03088 -0.027137 50 61 62 -0.628331 -0.106698 0.770595 
2.67004 -1.02988 -0.0260721 18 26 36 -0.97187 0.194374 -0.132993 
2.77276 -1.02918 -0.0383561 51 70 81 0.636842 -0.0111727 0.770914 
2.79965 -1.03006 -0.0224913 40 46 28 -0.995875 -0.0793175 -0.0440653 
2.80987 -1.02823 -0.0380846 38 49 53 -0.114286 -0.00879123 0.993409 
2.82927 -1.02692 -0.0224574 44 65 76 -0.616989 0.779967 0.104772 
2.92232 -1.0323 -0.0213581 41 53 34 -0.944037 0.233233 0.233233 
2.95524 -1.03685 -0.0224961 42 52 32 -0.904986 0.413388 0.100554 
3.03152 -1.0356 -0.0351599 75 90 96 -0.406665 0.485374 0.773974 
3.05122 -1.03119 -0.0297673 75 87 92 -0.236706 0.635369 0.735035 
3.07047 -1.03043 -0.0285957 76 88 95 0.0577389 0.658223 0.750605 
3.08995 -1.03051 -0.0304234 81 91 91 0.0110143 0.649844 0.759987 
3.10982 -1.02962 -0.0308895 72 83 82 0.0111338 0.61236 0.790501 
3.13024 -1.03203 -0.0304866 77 89 92 0.105751 0.575754 0.810755 
3.14989 -1.03254 -0.0324709 71 82 80 0.104772 0.616989 0.779967 
3.16999 -1.03366 -0.0339132 81 92 95 0.0819344 0.64377 0.76082 
3.19027 -1.0346 -0.0347126 81 95 98 0.0340843 0.647602 0.761216 
3.20998 -1.0345 -0.0352259 58 67 70 -0.0110465 0.695931 0.718024 
3.22972 -1.0347 -0.0340093 66 73 75 -0.0822052 0.692872 0.716359 
3.25025 -1.03372 -0.033192 68 73 72 0.0560596 0.81847 0.571808 
3.26676 -1.03677 -0.0349045 48 55 55 0.284951 0.854854 0.433621 
3.29164 -1.03854 -0.0356103 49 55 46 -0.0101792 0.926308 0.376631 
3.31489 -1.03858 -0.0361904 61 60 48 0.181852 0.952049 0.246035 
3.41208 -1.03801 -0.0326838 44 36 1 0.229525 -0.207666 0.950891 
3.46561 -1.03588 -0.0282445 43 52 55 -0.922937 0.0311102 0.383693 
2.1523 -1.01106 -0.020448 43 53 57 0.0587034 -0.0251586 0.997958 
2.16966 -1.00971 -0.0209416 39 49 50 -0.00787353 0.00787353 0.999938 
2.19001 -1.01008 -0.0207029 39 49 50 -0.00799744 0.0239923 0.99968 
2.20986 -1.01008 -0.0212123 38 50 50 0.0577527 0.00825039 0.998297 
2.23006 -1.00997 -0.0222334 38 49 50 0.0247782 -0.0247782 0.999386 
2.24996 -1.01009 -0.0222885 36 47 49 0.00825039 -0.0577527 0.998297 
2.27005 -1.0098 -0.0228702 35 46 47 0.0406155 -0.0081231 0.999142 
2.29005 -1.01001 -0.0240059 34 45 47 0.0766714 0.0255571 0.996729 
2.30992 -1.01002 -0.0253175 33 46 43 0.0577527 -0.00825039 0.998297 
2.32993 -1.01003 -0.0262991 35 47 43 0.059668 -0.04262 0.997308 
2.34994 -1.01017 -0.0271491 33 45 43 0.0243757 -0.0243757 0.999406 
2.3699 -1.01001 -0.0272997 35 45 44 0.00787353 -0.00787353 0.999938 
2.38996 -1.01008 -0.0276902 36 44 41 0.0412857 0.00825713 0.999113 
2.41007 -1.01007 -0.0285271 35 45 43 0.0247782 0.0247782 0.999386 
2.43001 -1.01 -0.0287283 36 45 43 0.0081231 0.0406155 0.999142 
2.44998 -1.0099 -0.0290361 36 46 45 0.0406155 0.0081231 0.999142 
2.46998 -1.00991 -0.0298375 39 48 48 0.0419665 -0.0251799 0.998802 
2.48994 -1.01005 -0.03055 36 46 45 0.0081274 -0.0243822 0.99967 
2.5085 -1.01048 -0.0269283 55 63 64 -0.556262 0.15386 0.81664 
2.6759 -1.01716 -0.0265751 14 19 30 -0.730349 0.627844 -0.269076 
2.6843 -1.0136 -0.0311891 12 17 25 -0.475651 0.784181 -0.398518 
2.75175 -1.00653 -0.0318132 101 104 107 0.0697113 0.248969 0.965999 
2.76963 -1.00818 -0.0369601 71 81 82 0.416808 -0.0320622 0.908429 
2.91509 -1.01182 -0.0256747 44 55 37 -0.812315 -0.545585 0.20611 
2.93508 -1.01768 -0.0214299 53 50 45 0.330679 -0.923621 -0.193846 
3.0645 -1.01915 -0.0398599 92 88 103 -0.0112007 0.660839 0.750444 
3.10685 -1.01981 -0.0399283 114 134 114 -0.0112007 0.660839 0.750444 
1.75411 -0.991172 -0.0276176 50 63 66 -0.638949 0.212983 0.739177 
1.76252 -0.987138 -0.0211586 44 61 67 -0.574171 0.128895 0.808526 
2.15573 -0.991333 -0.0202342 43 54 51 0.0766714 -0.0255571 0.996729 
2.17012 -0.990032 -0.0208948 39 50 52 0.0243757 -0.0243757 0.999406 
2.19002 -0.990165 -0.0208707 39 49 49 -0.00787353 -0.00787353 0.999938 
2.20997 -0.990067 -0.0212864 38 49 53 0.0412857 -0.00825713 0.999113 
2.23031 -0.990203 -0.0220662 37 48 49 0.0239923 0.00799744 0.99968 
2.24994 -0.989786 -0.0221097 37 48 47 0.00825713 0.0412857 0.999113 
2.27001 -0.989943 -0.0231898 35 47 49 0.0793175 0.0440653 0.995875 
2.28986 -0.989865 -0.024879 35 46 45 0.0606453 0.0606453 0.996315 
2.31005 -0.990017 -0.025531 33 46 43 0.0081274 0.0243822 0.99967 
2.32996 -0.989933 -0.0259481 36 46 45 0.0406155 0.0081231 0.999142 
2.34992 -0.990081 -0.0267606 33 44 42 0.0243822 -0.0081274 0.99967 
2.36997 -0.989927 -0.0271761 34 44 41 0.0243822 -0.0081274 0.99967 
2.3899 -0.989866 -0.0278542 33 44 42 0.0406155 -0.0081231 0.999142 
2.40996 -0.989983 -0.0289747 34 44 40 0.05872 0.00838856 0.998239 
2.42992 -0.989976 -0.0298503 34 44 42 0.00825713 0.0412857 0.999113 
2.44997 -0.990111 -0.0294847 35 44 41 -0.0243757 0.0243757 0.999406 
2.46997 -0.990089 -0.0295578 36 45 43 0.0243822 0.0081274 0.99967 
2.48997 -0.990175 -0.0301212 36 46 44 0.00799744 -0.0239923 0.99968 
2.51034 -0.989871 -0.0281395 53 64 60 -0.286316 0.0296189 0.957677 
2.5241 -0.986335 -0.0242524 55 64 57 -0.562276 0.011025 0.826876 
2.5519 -0.987989 -0.024771 57 64 53 -0.546642 0.0334679 -0.836697 
2.56839 -0.988821 -0.0275553 51 58 52 -0.0412744 -0.0247647 -0.998841 
2.58952 -0.988562 -0.028054 70 67 68 0.0700455 -0.23015 -0.970631 
2.61031 -0.985282 -0.0266767 67 71 61 0.181002 0.0666848 -0.981219 
2.62816 -0.987426 -0.0293522 46 58 47 0.378867 0.692411 -0.614025 
2.65045 -0.986606 -0.0321361 55 53 55 -0.0544412 0.903723 0.424641 
2.67018 -0.984067 -0.0264448 57 59 46 0.256422 0.42737 0.86695 
2.69122 -0.988704 -0.0290133 63 66 59 0.0108268 -0.833663 0.552167 
2.71206 -0.988394 -0.0336479 55 59 45 0.084549 0.140915 0.986405 
2.72876 -0.98843 -0.0347954 49 55 41 -0.0587034 0.0251586 0.997958 
2.74908 -0.989367 -0.0334607 54 53 48 -0.0259986 -0.0779959 0.996615 
2.77159 -0.989226 -0.0368346 44 48 46 0.315817 -0.0509383 0.947452 
2.78138 -0.98382 -0.0397037 45 46 39 0.273034 -0.0505618 0.960675 
2.9045 -0.988781 -0.0231355 44 44 48 -0.953359 -0.139255 0.267797 
1.76258 -0.975717 -0.0219842 46 64 56 -0.587188 -0.033237 0.808768 
2.15669 -0.969231 -0.0202021 42 53 57 0.05872 0.00838856 0.998239 
2.16997 -0.970044 -0.0209168 39 50 51 0.0412744 0.0247647 0.998841 
2.18989 -0.970058 -0.0209739 38 49 47 -0.0247782 0.0247782 0.999386 
2.21005 -0.969862 -0.0211415 38 49 48 0.0419665 0.0251799 0.998802 
2.23004 -0.970001 -0.0223853 39 50 51 0.059668 0.04262 0.997308 
2.25002 -0.969997 -0.0234556 38 48 48 0.0433051 0.0779491 0.996016 
2.27029 -0.969953 -0.0244486 36 47 45 0.0606453 0.0606453 0.996315 
2.29013 -0.970052 -0.0257028 34 44 46 0.0587034 0.0251586 0.997958 
2.30994 -0.970076 -0.0262892 35 45 43 0.0081231 0.0406155 0.999142 
2.33 -0.969856 -0.0265389 37 46 47 0.0251799 0.0419665 0.998802 
2.35006 -0.969941 -0.0269908 34 44 45 0.0081274 0.0243822 0.99967 
2.37009 -0.970038 -0.0271352 33 43 39 0.00799949 0.00799949 0.999936 
2.38999 -0.970023 -0.0276607 32 42 39 0.0406155 -0.0081231 0.999142 
2.41029 -0.970198 -0.0288463 33 42 40 0.0754122 -0.00837914 0.997117 
2.42996 -0.969992 -0.0298322 34 43 41 0.0081274 -0.0243822 0.99967 
2.44996 -0.969908 -0.0295191 35 44 41 -0.0243757 -0.0243757 0.999406 
2.46996 -0.970168 -0.0295091 34 42 41 0.00799744 -0.0239923 0.99968 
2.49011 -0.970162 -0.0296397 33 42 39 -0.00799744 -0.0239923 0.99968 
2.50948 -0.96938 -0.0282466 36 45 41 -0.181002 0.0666848 0.981219 
2.52894 -0.963792 -0.0243051 45 52 48 -0.203378 0.442646 0.873328 
2.5482 -0.965883 -0.0228421 48 52 43 -0.104772 0.779967 0.616989 
2.57167 -0.969241 -0.0232027 39 45 39 0.119771 0.9255 0.359312 
2.59071 -0.968012 -0.0240103 38 46 37 -0.033237 0.853084 0.520714 
2.60884 -0.969304 -0.023118 39 40 33 -0.165033 0.98049 0.106786 
2.62749 -0.964252 -0.0236781 39 43 41 0.0111727 0.770914 0.636842 
2.6521 -0.961498 -0.0222678 25 38 22 -0.0578315 0.728677 0.682412 
2.67005 -0.974367 -0.0214624 50 53 39 0.0626325 -0.0984224 0.993172 
2.69131 -0.970384 -0.0246168 38 43 23 0.39013 -0.248264 0.886659 
2.70991 -0.967695 -0.0318885 36 42 27 0.353655 -0.0750177 0.932363 
2.73037 -0.969095 -0.0361853 42 44 31 -0.00850917 0.0936009 0.995573 
2.75046 -0.968769 -0.0347533 40 47 32 0.00920146 0.174828 0.984556 
2.77073 -0.968809 -0.0376222 37 46 42 0.213941 0.132439 0.967827 
2.78108 -0.97318 -0.0395589 24 33 32 0.22178 0.0482131 0.973904 
2.89835 -0.979519 -0.024151 47 52 18 -0.9076 0.0533882 0.416428 
2.1389 -0.941606 -0.0200816 45 53 41 0.0606453 0.0606453 0.996315 
2.15204 -0.948485 -0.0205556 41 53 56 0.0607 0.0433571 0.997214 
2.17003 -0.950017 -0.0215634 40 50 50 0.0419428 0.0419428 0.998239 
2.18998 -0.950211 -0.0218181 38 50 50 -0.0081231 0.0406155 0.999142 
2.21007 -0.949831 -0.0221303 38 49 51 0.04262 0.059668 0.997308 
2.23012 -0.949881 -0.023419 38 49 48 0.0607 0.0433571 0.997214 
2.24998 -0.950064 -0.0245951 38 47 48 0.059668 0.04262 0.997308 
2.26983 -0.950076 -0.0253562 35 46 45 0.0247647 0.0412744 0.998841 
2.28995 -0.950025 -0.0260454 34 43 42 0.0412857 0.00825713 0.999113 
2.30986 -0.950052 -0.026808 32 43 41 0.0243822 0.0081274 0.99967 
2.32986 -0.949778 -0.0272147 33 43 40 0.0243757 0.0243757 0.999406 
2.34983 -0.949891 -0.0273365 33 42 39 -0.00799949 0.00799949 0.999936 
2.36998 -0.949952 -0.0273433 30 42 38 0.0081274 0.0243822 0.99967 
2.38992 -0.950004 -0.0280318 31 41 38 0.059668 0.04262 0.997308 
2.41 -0.950061 -0.0290986 30 40 35 0.0406155 0.0081231 0.999142 
2.43007 -0.949933 -0.0291716 32 40 37 -0.0251799 -0.0419665 0.998802 
2.44999 -0.950114 -0.0287778 31 39 37 -0.00825713 -0.0412857 0.999113 
2.47014 -0.950151 -0.0290603 31 39 35 0.0081274 -0.0243822 0.99967 
2.48979 -0.950003 -0.0293566 30 38 34 0.0406155 0.0081231 0.999142 
2.51006 -0.94997 -0.0301428 30 38 33 0.00837914 0.0754122 0.997117 
2.53017 -0.949777 -0.0297561 31 38 36 -0.0292228 0.263005 0.964352 
2.55002 -0.948897 -0.0298383 32 38 36 0.00994299 0.328119 0.944584 
2.57021 -0.948723 -0.0303467 30 38 37 0.052211 0.365477 0.929355 
2.59023 -0.949375 -0.0314784 36 43 41 0.0759301 0.379651 0.922009 
2.61062 -0.95005 -0.0324892 34 42 40 0.010488 0.409033 0.912459 
2.62955 -0.948645 -0.0332438 36 43 40 0.0102907 0.401337 0.915872 
2.65022 -0.949461 -0.0328671 39 46 38 0.0106776 0.501849 0.864889 
2.66971 -0.947938 -0.0329956 39 46 40 -0.0797776 0.512856 0.85476 
2.68978 -0.948603 -0.030517 39 45 40 0.0328522 0.536586 0.843206 
2.7102 -0.948499 -0.0336702 43 51 45 0.210916 0.255319 0.943571 
2.72973 -0.949116 -0.0375135 42 50 44 0.10007 0.0818757 0.991606 
2.74983 -0.950521 -0.038157 39 46 42 0.0469551 0.159647 0.986057 
2.7664 -0.955175 -0.0391057 32 40 32 0.128751 0.148559 0.980486 
2.91671 -0.952985 -0.0253718 45 44 37 -0.982343 0.0875356 0.165345 
1.81954 -0.922188 -0.0316883 30 47 53 0.562003 0.826474 0.033059 
2.11784 -0.922197 -0.020127 48 60 58 0.059668 0.04262 0.997308 
2.13131 -0.928313 -0.0206032 45 54 57 0.0617105 0.0617105 0.996185 
2.14992 -0.929898 -0.0216015 44 54 58 0.0617105 0.0617105 0.996185 
2.1698 -0.930304 -0.022314 40 50 49 0.0247647 0.0412744 0.998841 
2.18999 -0.929901 -0.0224574 38 49 50 0.0081231 0.0406155 0.999142 
2.20999 -0.930168 -0.0229202 38 49 50 0.0419428 0.0419428 0.998239 
2.22973 -0.929993 -0.0238958 37 48 46 0.0419665 0.0251799 0.998802 
2.24987 -0.930032 -0.0248216 36 46 46 0.0406155 0.0081231 0.999142 
2.26994 -0.930075 -0.0255593 33 43 43 0.0243757 -0.0243757 0.999406 
2.28999 -0.930074 -0.026088 31 41 38 0.0243757 -0.0243757 0.999406 
2.30992 -0.929996 -0.0266948 30 41 38 0.0243757 -0.0243757 0.999406 
2.32996 -0.929991 -0.0273367 31 40 38 0.0243757 -0.0243757 0.999406 
2.34987 -0.929993 -0.0273662 30 40 35 -0.00799744 -0.0239923 0.99968 
2.36998 -0.929946 -0.0276759 28 38 34 0.0243822 -0.0081274 0.99967 
2.39003 -0.929984 -0.0283988 29 38 34 0.0247782 -0.0247782 0.999386 
2.40997 -0.929998 -0.0284841 29 38 32 -0.0251586 -0.0587034 0.997958 
2.42997 -0.930073 -0.027919 31 38 33 -0.0251586 -0.0587034 0.997958 
2.45001 -0.930067 -0.0280074 29 36 30 0.0243822 -0.0081274 0.99967 
2.47001 -0.930023 -0.0287871 27 35 31 0.0406155 -0.0081231 0.999142 
2.48991 -0.930026 -0.029431 27 34 34 0.0412744 -0.0247647 0.998841 
2.51023 -0.930101 -0.0304877 25 32 28 0.0597027 -0.0255869 0.997888 
2.53014 -0.930204 -0.0316703 25 33 29 0.05872 -0.00838856 0.998239 
2.55039 -0.930264 -0.0326883 24 32 28 0.0412857 -0.00825713 0.999113 
2.56977 -0.929955 -0.0337004 25 33 28 0.0577527 0.00825039 0.998297 
2.58986 -0.929873 -0.0348325 25 32 28 0.05872 -0.00838856 0.998239 
2.61002 -0.929933 -0.0357249 24 32 30 0.0412744 -0.0247647 0.998841 
2.62975 -0.930175 -0.0364672 26 34 32 0.0412744 -0.0247647 0.998841 
2.64951 -0.929927 -0.0374133 28 36 29 0.0419665 -0.0251799 0.998802 
2.67001 -0.930321 -0.0380312 28 35 28 0.00799949 0.00799949 0.999936 
2.68995 -0.929292 -0.037984 28 36 31 -0.00852152 0.0766937 0.997018 
2.70984 -0.930071 -0.0380336 34 39 40 0.0268339 0.11628 0.992854 
2.73034 -0.929761 -0.0390138 32 40 35 0.0426572 0.0426572 0.998179 
2.74601 -0.929951 -0.0397229 31 38 35 0.0412744 0.0247647 0.998841 
2.11657 -0.909848 -0.0202796 45 56 62 0.0766937 0.00852152 0.997018 
2.12989 -0.910019 -0.0213079 44 54 58 0.0766937 0.00852152 0.997018 
2.15002 -0.910276 -0.0226122 43 54 53 0.0419665 0.0251799 0.998802 
2.1699 -0.909941 -0.023099 39 49 48 0.00799744 0.0239923 0.99968 
2.19022 -0.909966 -0.0231055 38 48 51 0.00799744 0.0239923 0.99968 
2.21006 -0.90997 -0.0236558 37 47 47 0.0419665 0.0251799 0.998802 
2.23006 -0.91001 -0.0245801 35 46 43 0.0419428 0.0419428 0.998239 
2.2498 -0.909962 -0.0250014 33 43 41 0.00787353 0.00787353 0.999938 
2.27002 -0.909984 -0.0250325 31 40 36 0.00799744 -0.0239923 0.99968 
2.28984 -0.91002 -0.0256654 27 37 35 0.0412857 -0.00825713 0.999113 
2.30984 -0.909917 -0.026504 26 36 32 0.0243822 0.0081274 0.99967 
2.32994 -0.910009 -0.0267234 26 35 30 -0.0081274 -0.0243822 0.99967 
2.34994 -0.910081 -0.0263148 26 35 30 -0.00825039 -0.0577527 0.998297 
2.36998 -0.90997 -0.0265025 26 34 30 0.0255869 -0.0597027 0.997888 
2.3899 -0.91009 -0.0270394 24 33 26 0.0255571 -0.0766714 0.996729 
2.40992 -0.910077 -0.0272787 25 32 28 0.00825713 -0.0412857 0.999113 
2.42998 -0.910048 -0.0274718 24 31 26 0.0239923 -0.00799744 0.99968 
2.45018 -0.909877 -0.0280519 24 30 27 0.0243822 0.0081274 0.99967 
2.46981 -0.910082 -0.0284994 24 30 26 0.00799744 -0.0239923 0.99968 
2.48989 -0.910082 -0.0284378 22 28 23 0.00825713 -0.0412857 0.999113 
2.50982 -0.909998 -0.0294903 20 27 25 0.0793175 -0.0440653 0.995875 
2.53006 -0.909986 -0.0308639 22 27 26 0.059668 -0.04262 0.997308 
2.5498 -0.910093 -0.0317237 20 26 22 0.04262 -0.059668 0.997308 
2.56997 -0.90998 -0.0325712 22 27 25 0.0433051 -0.0779491 0.996016 
2.58981 -0.910246 -0.0334559 20 27 22 0.0440653 -0.0793175 0.995875 
2.60992 -0.91002 -0.0342236 21 28 25 0.0440653 -0.0793175 0.995875 
2.62972 -0.910353 -0.0349199 24 29 22 0.0259597 -0.0951855 0.995121 
2.64995 -0.910445 -0.035472 23 29 21 0.0264146 -0.0968534 0.994948 
2.67024 -0.910298 -0.0361725 23 30 22 0.0446946 -0.116206 0.992219 
2.69032 -0.909621 -0.0369711 24 29 22 0.043997 -0.0967933 0.994332 
2.70974 -0.909995 -0.0374983 26 31 26 0.0264146 -0.0968534 0.994948 
2.7304 -0.90986 -0.0384458 28 33 28 0.0617105 -0.0617105 0.996185 
2.74932 -0.909671 -0.0393292 28 34 29 0.04262 -0.059668 0.997308 
2.7658 -0.904602 -0.0397412 30 36 28 0.04262 -0.059668 0.997308 
3.06159 -0.910461 -0.0214504 44 44 41 0.973904 0.22178 0.0482131 
1.87783 -0.89585 -0.0348557 38 49 77 0.925166 -0.372193 0.0744386 
2.11508 -0.888808 -0.0202429 44 55 58 0.0577527 0.00825039 0.998297 
2.12964 -0.889796 -0.0211896 44 54 59 0.0754122 -0.00837914 0.997117 
2.14988 -0.889868 -0.0225539 42 52 56 0.05872 -0.00838856 0.998239 
2.17027 -0.889951 -0.0231437 38 49 47 0.00799949 -0.00799949 0.999936 
2.19003 -0.889992 -0.0231722 36 47 45 0.00787353 0.00787353 0.999938 
2.20996 -0.890073 -0.0239843 36 46 47 0.05872 0.00838856 0.998239 
2.23004 -0.889921 -0.0249389 33 43 42 0.0239923 -0.00799744 0.99968 
2.25 -0.889904 -0.0248635 29 40 35 -0.0081274 -0.0243822 0.99967 
2.27005 -0.889871 -0.0249113 26 36 32 0.0406155 -0.0081231 0.999142 
2.2899 -0.890001 -0.0259091 25 33 27 0.0577527 0.00825039 0.998297 
2.31004 -0.889884 -0.0266131 22 31 24 0.00799949 -0.00799949 0.999936 
2.32997 -0.889838 -0.026459 23 31 24 -0.0243822 -0.0081274 0.99967 
2.34983 -0.89002 -0.0259072 24 32 23 -0.00799949 0.00799949 0.999936 
2.36998 -0.889955 -0.0260354 21 28 22 0.0243822 0.0081274 0.99967 
2.39025 -0.890083 -0.0264801 21 27 22 0.0243822 0.0081274 0.99967 
2.40994 -0.890072 -0.0270389 20 27 24 0.0243822 0.0081274 0.99967 
2.42997 -0.890115 -0.0276082 21 28 23 0.0243822 0.0081274 0.99967 
2.44995 -0.890015 -0.0280376 21 25 20 0.00787353 -0.00787353 0.999938 
2.47015 -0.89016 -0.0280446 19 25 20 -0.00799949 -0.00799949 0.999936 
2.49007 -0.889973 -0.0280484 19 24 18 0.0239923 0.00799744 0.99968 
2.50999 -0.890035 -0.0290309 18 23 19 0.05872 -0.00838856 0.998239 
2.53022 -0.889915 -0.0301892 17 22 19 0.0419428 -0.0419428 0.998239 
2.54987 -0.890047 -0.0308746 17 23 18 0.0247647 -0.0412744 0.998841 
2.57002 -0.890171 -0.0314069 17 22 22 0.0251799 -0.0419665 0.998802 
2.58978 -0.889897 -0.0319609 18 24 21 0.0255869 -0.0597027 0.997888 
2.60974 -0.889952 -0.0327236 19 23 19 0.04262 -0.059668 0.997308 
2.63013 -0.890057 -0.0335738 19 25 19 0.0419428 -0.0419428 0.998239 
2.65005 -0.89035 -0.0342481 20 25 23 0.0247782 -0.0247782 0.999386 
2.67026 -0.889756 -0.0349068 21 26 19 0.0412744 -0.0247647 0.998841 
2.69015 -0.889555 -0.0356831 22 27 21 0.0412744 -0.0247647 0.998841 
2.70983 -0.890329 -0.0362781 22 29 21 0.0406155 -0.0081231 0.999142 
2.73053 -0.89032 -0.0374711 24 30 25 0.05872 -0.00838856 0.998239 
2.75004 -0.890267 -0.03838 25 32 23 0.0419428 -0.0419428 0.998239 
2.77018 -0.889566 -0.0391048 28 33 28 0.0426572 -0.0426572 0.998179 
2.78623 -0.885397 -0.0396589 29 36 32 0.0426572 -0.0426572 0.998179 
3.05623 -0.893383 -0.0254587 64 52 32 0.935868 0.352208 0.0100631 
2.09788 -0.860536 -0.0200166 55 66 86 0.0412857 0.00825713 0.999113 
2.11122 -0.869214 -0.0203882 45 55 58 0.0412744 0.0247647 0.998841 
2.12978 -0.869681 -0.0211996 44 54 59 0.0577527 0.00825039 0.998297 
2.14962 -0.869949 -0.0223111 42 51 55 0.0412857 -0.00825713 0.999113 
2.17014 -0.869954 -0.0228325 37 46 44 0.00799744 -0.0239923 0.99968 
2.18995 -0.869982 -0.0231276 36 46 44 0.0412857 -0.00825713 0.999113 
2.21009 -0.869989 -0.024125 34 44 44 0.0412857 -0.00825713 0.999113 
2.23001 -0.869959 -0.0246875 33 42 42 -0.00799744 -0.0239923 0.99968 
2.25014 -0.87003 -0.0243411 29 39 34 -0.00799744 -0.0239923 0.99968 
2.26997 -0.870002 -0.0246874 24 34 29 0.0412857 -0.00825713 0.999113 
2.2899 -0.869993 -0.025565 21 29 23 0.0419665 -0.0251799 0.998802 
2.30999 -0.870028 -0.0261453 22 29 25 0.0081274 -0.0243822 0.99967 
2.33003 -0.870101 -0.026174 20 27 20 -0.00799744 -0.0239923 0.99968 
2.34979 -0.870074 -0.0260482 19 26 20 0.00787353 -0.00787353 0.999938 
2.36964 -0.870218 -0.0263254 20 25 22 0.0239923 -0.00799744 0.99968 
2.38995 -0.870025 -0.0267261 18 23 19 0.0239923 -0.00799744 0.99968 
2.40977 -0.870042 -0.027243 16 24 20 0.0239923 -0.00799744 0.99968 
2.4301 -0.869819 -0.0278034 17 22 19 0.0239923 0.00799744 0.99968 
2.4501 -0.869928 -0.028131 16 21 15 0.00799949 0.00799949 0.999936 
2.47032 -0.86987 -0.0281395 16 21 16 -0.00799744 0.0239923 0.99968 
2.49024 -0.869758 -0.0282835 16 22 17 0.0081274 0.0243822 0.99967 
2.51012 -0.86982 -0.0286414 15 19 17 0.0081274 -0.0243822 0.99967 
2.5299 -0.869808 -0.0291289 15 19 17 0.0433051 -0.0779491 0.996016 
2.55017 -0.870246 -0.0301516 16 21 18 0.0426572 -0.0426572 0.998179 
2.5702 -0.870114 -0.0308548 16 21 17 0.0243822 -0.0081274 0.99967 
2.58998 -0.87041 -0.0313395 16 22 18 0.0243822 -0.0081274 0.99967 
2.6104 -0.869881 -0.0320276 18 22 18 0.0412857 -0.00825713 0.999113 
2.62981 -0.869993 -0.0329289 16 23 18 0.0419665 -0.0251799 0.998802 
2.64972 -0.869777 -0.0338761 17 22 19 0.0412857 -0.00825713 0.999113 
2.67009 -0.869851 -0.0347053 19 23 17 0.0412857 -0.00825713 0.999113 
2.68948 -0.870307 -0.0355247 21 26 21 0.0412857 -0.00825713 0.999113 
2.70988 -0.870018 -0.0365389 20 24 21 0.0577527 0.00825039 0.998297 
2.72991 -0.870475 -0.0373942 20 27 22 0.0406155 0.0081231 0.999142 
2.74984 -0.870192 -0.0378843 25 30 24 0.0239923 -0.00799744 0.99968 
2.77025 -0.870016 -0.0385328 26 33 29 0.0406155 0.0081231 0.999142 
2.79018 -0.870612 -0.0394874 29 36 30 0.0412857 -0.00825713 0.999113 
2.80104 -0.866119 -0.0399636 30 32 42 0.0406155 0.0081231 0.999142 
1.91903 -0.844719 -0.032057 42 43 58 0.809593 0.581539 -0.0798191 
2.09761 -0.848826 -0.0200789 45 55 53 0.0577527 0.00825039 0.998297 
2.11009 -0.850169 -0.0206278 46 55 59 0.0406155 0.0081231 0.999142 
2.13006 -0.850351 -0.021405 44 54 55 0.0406155 0.0081231 0.999142 
2.14987 -0.850009 -0.0222584 40 51 54 0.0406155 -0.0081231 0.999142 
2.17013 -0.849886 -0.0226695 37 46 45 0.00787353 -0.00787353 0.999938 
2.1897 -0.850302 -0.0228458 36 47 45 0.0243822 -0.0081274 0.99967 
2.20987 -0.849862 -0.0235087 37 46 43 0.0419428 -0.0419428 0.998239 
2.22989 -0.850038 -0.0240047 34 43 40 0.00825039 -0.0577527 0.998297 
2.25 -0.850012 -0.0238918 29 38 35 0.00825713 -0.0412857 0.999113 
2.27002 -0.850163 -0.0245016 24 33 26 0.0406155 -0.0081231 0.999142 
2.28994 -0.850073 -0.0252349 20 27 20 0.0243822 0.0081274 0.99967 
2.30986 -0.850044 -0.025589 20 26 19 0.00799949 -0.00799949 0.999936 
2.33009 -0.850087 -0.0256206 18 24 22 0.00799744 -0.0239923 0.99968 
2.35 -0.850023 -0.0258063 17 22 21 0.00799949 -0.00799949 0.999936 
2.37005 -0.85011 -0.0261177 17 24 20 0.00799949 -0.00799949 0.999936 
2.39013 -0.850198 -0.0264749 16 22 19 0.0243822 -0.0081274 0.99967 
2.41005 -0.85007 -0.0270637 17 21 21 0.0406155 -0.0081231 0.999142 
2.42995 -0.849798 -0.0277284 17 21 18 0.0243822 -0.0081274 0.99967 
2.44988 -0.85003 -0.0281962 15 20 16 0.0239923 -0.00799744 0.99968 
2.47004 -0.850174 -0.0284958 16 21 15 0.00799949 -0.00799949 0.999936 
2.48978 -0.849939 -0.0285832 16 22 17 -0.00799949 -0.00799949 0.999936 
2.50958 -0.850218 -0.0278257 15 20 18 -0.059668 -0.04262 0.997308 
2.53021 -0.850221 -0.0273849 15 21 18 0.0606453 -0.0606453 0.996315 
2.54975 -0.849736 -0.0294007 17 21 17 0.0951855 -0.0259597 0.995121 
2.57019 -0.850194 -0.0307913 17 22 18 0.0406155 0.0081231 0.999142 
2.59002 -0.850306 -0.0313934 18 24 17 0.0243822 0.0081274 0.99967 
2.60966 -0.850272 -0.0319707 18 22 17 0.0406155 0.0081231 0.999142 
2.63023 -0.850592 -0.0327453 19 23 15 0.0406155 -0.0081231 0.999142 
2.65036 -0.85051 -0.0336192 18 22 15 0.0412857 -0.00825713 0.999113 
2.6697 -0.850126 -0.0344227 17 23 17 0.0412857 -0.00825713 0.999113 
2.68938 -0.85016 -0.0353811 19 24 19 0.0577527 -0.00825039 0.998297 
2.70955 -0.850025 -0.0365862 21 25 18 0.0577527 0.00825039 0.998297 
2.73013 -0.849421 -0.0375221 22 28 21 0.0406155 0.0081231 0.999142 
2.74992 -0.849928 -0.0382786 22 28 24 0.0412744 0.0247647 0.998841 
2.76914 -0.850092 -0.0392261 26 32 27 0.0426572 0.0426572 0.998179 
2.78678 -0.854965 -0.0396814 29 35 30 0.0419428 0.0419428 0.998239 
2.81611 -0.840685 -0.0399964 32 33 43 -0.00825039 -0.0577527 0.998297 
2.82463 -0.84145 -0.039964 38 39 28 -0.00838856 -0.05872 0.998239 
2.09889 -0.835115 -0.020057 44 55 52 0.0412857 -0.00825713 0.999113 
2.11017 -0.830349 -0.0204049 44 55 55 0.0412744 -0.0247647 0.998841 
2.13 -0.829812 -0.0211563 45 55 58 0.0412744 -0.0247647 0.998841 
2.14998 -0.829406 -0.0219385 42 52 55 0.0412744 -0.0247647 0.998841 
2.17008 -0.829956 -0.0224573 38 49 47 0.0081274 -0.0243822 0.99967 
2.18976 -0.830029 -0.0224342 38 47 44 -0.0081274 -0.0243822 0.99967 
2.20997 -0.83 -0.0226387 36 45 43 0.0247647 -0.0412744 0.998841 
2.22934 -0.830663 -0.0222393 35 44 39 -0.084549 -0.140915 0.986405 
2.25044 -0.833443 -0.0220285 30 38 32 0.0498531 -0.249266 0.967151 
2.26994 -0.830181 -0.0243797 24 29 24 0.181002 -0.0666848 0.981219 
2.28979 -0.830061 -0.0261126 19 25 20 0.0247647 0.0412744 0.998841 
2.31041 -0.830286 -0.0259933 18 23 17 -0.00838856 0.05872 0.998239 
2.32999 -0.829832 -0.0257732 16 21 18 -0.0081231 0.0406155 0.999142 
2.35029 -0.829939 -0.0259654 17 22 21 0.0243757 0.0243757 0.999406 
2.3701 -0.830124 -0.0262759 17 21 19 0.0081274 0.0243822 0.99967 
2.3904 -0.830068 -0.026545 18 22 21 0.0081274 0.0243822 0.99967 
2.40999 -0.829732 -0.0269092 17 21 20 0.0239923 0.00799744 0.99968 
2.43004 -0.830061 -0.027324 19 23 20 0.0081274 -0.0243822 0.99967 
2.45001 -0.829996 -0.0274441 18 23 17 0.00825039 -0.0577527 0.998297 
2.46965 -0.830263 -0.0276305 18 23 16 0.0255571 -0.0766714 0.996729 
2.48972 -0.830829 -0.0279536 19 23 17 -0.00825039 -0.0577527 0.998297 
2.5099 -0.829807 -0.0274209 19 23 19 -0.0239923 0.00799744 0.99968 
2.52972 -0.829908 -0.0275916 22 25 18 0.0607 0.0433571 0.997214 
2.54985 -0.829988 -0.0294843 17 24 20 0.0951855 0.0259597 0.995121 
2.56935 -0.830399 -0.0307624 20 25 17 0.0406155 -0.0081231 0.999142 
2.59007 -0.829371 -0.0314345 18 24 20 0.0239923 -0.00799744 0.99968 
2.60967 -0.830787 -0.0320669 18 22 17 0.0406155 0.0081231 0.999142 
2.62993 -0.829914 -0.032744 16 22 16 0.0406155 0.0081231 0.999142 
2.6504 -0.830072 -0.0334737 17 22 18 0.0406155 -0.0081231 0.999142 
2.66982 -0.830427 -0.0342907 19 24 19 0.0412857 -0.00825713 0.999113 
2.68939 -0.829701 -0.0354736 18 23 18 0.0754122 0.00837914 0.997117 
2.7101 -0.829727 -0.0368171 17 23 19 0.0412857 0.00825713 0.999113 
2.73049 -0.829919 -0.0366537 22 27 19 -0.0455016 -0.118304 0.991934 
2.75022 -0.829871 -0.0362486 29 32 26 0.0305884 -0.31608 0.948239 
2.76993 -0.829042 -0.0376566 31 35 28 0.0726218 -0.321611 0.944083 
2.79018 -0.827559 -0.0385427 34 39 33 0.0292228 -0.263005 0.964352 
2.80969 -0.829982 -0.0391932 37 41 36 -0.0086403 -0.112324 0.993634 
2.82956 -0.829813 -0.0391076 34 40 39 -0.00825039 -0.0577527 0.998297 
2.84791 -0.82759 -0.0392804 35 40 36 0.0440653 -0.0793175 0.995875 
2.86303 -0.822602 -0.039748 44 48 46 0.0818757 -0.10007 0.991606 
2.11466 -0.813021 -0.0201707 46 56 62 0.0247782 -0.0247782 0.999386 
2.13033 -0.809846 -0.0206224 44 55 53 0.0247782 -0.0247782 0.999386 
2.15002 -0.809983 -0.0211926 41 51 51 0.0251799 -0.0419665 0.998802 
2.16984 -0.809984 -0.0217431 36 45 42 0.0251799 -0.0419665 0.998802 
2.18997 -0.809924 -0.0218137 37 46 40 0.0081231 -0.0406155 0.999142 
2.20993 -0.810007 -0.0221466 35 45 42 0.00787353 -0.00787353 0.999938 
2.22373 -0.810168 -0.021178 37 45 40 -0.244734 -0.029368 0.969145 
2.27356 -0.815116 -0.022415 33 34 23 0.342376 -0.494543 0.798878 
2.29081 -0.811831 -0.0246932 27 30 21 0.164736 -0.318489 0.933502 
2.31013 -0.810375 -0.0265843 25 28 20 0.0779491 -0.0433051 0.996016 
2.3299 -0.810173 -0.0267857 22 26 22 -0.0247647 0.0412744 0.998841 
2.35013 -0.810307 -0.0265245 20 26 22 0.00799744 0.0239923 0.99968 
2.37012 -0.810697 -0.0267828 19 24 24 0.0243822 0.0081274 0.99967 
2.38993 -0.810114 -0.0270327 21 26 22 -0.00787353 0.00787353 0.999938 
2.40979 -0.810359 -0.0268859 20 25 24 0.00799744 -0.0239923 0.99968 
2.42976 -0.809904 -0.0268449 21 28 21 -0.0243757 -0.0243757 0.999406 
2.45003 -0.810045 -0.0262958 23 28 20 -0.0251799 -0.0419665 0.998802 
2.47032 -0.810112 -0.0264034 24 30 19 0.0419428 -0.0419428 0.998239 
2.48999 -0.809884 -0.0271374 21 27 19 0.0247782 -0.0247782 0.999386 
2.50929 -0.809751 -0.027662 23 26 21 0.0412744 0.0247647 0.998841 
2.53016 -0.810167 -0.0286869 19 24 19 0.0607 0.0433571 0.997214 
2.55048 -0.810203 -0.029969 19 23 21 0.05872 0.00838856 0.998239 
2.57025 -0.809286 -0.0307765 20 25 19 0.0243822 -0.0081274 0.99967 
2.58981 -0.809966 -0.0314358 23 28 19 0.0406155 -0.0081231 0.999142 
2.60942 -0.810757 -0.0321895 17 22 20 0.0406155 0.0081231 0.999142 
2.62992 -0.809777 -0.032855 16 21 15 0.0243822 0.0081274 0.99967 
2.6512 -0.810022 -0.0334792 18 23 19 0.0243822 -0.0081274 0.99967 
2.67039 -0.809499 -0.0342655 15 21 17 0.0577527 -0.00825039 0.998297 
2.69074 -0.80978 -0.0358527 19 23 19 0.095214 0.00865582 0.995419 
2.70972 -0.810435 -0.0369941 18 22 18 -0.0239923 0.00799744 0.99968 
2.72947 -0.809925 -0.0316532 27 30 16 -0.488608 -0.31321 0.814347 
2.74977 -0.816422 -0.0272616 32 33 27 -0.128895 -0.808526 0.574171 
2.76977 -0.816367 -0.0281072 40 43 22 0.128124 -0.82698 0.547438 
2.79109 -0.812655 -0.0303936 38 42 33 0.350354 -0.635828 0.687732 
2.8083 -0.811694 -0.0373982 39 43 33 0.304405 0.00981951 0.952492 
2.83022 -0.815146 -0.039165 40 45 38 -0.00906435 0.154094 0.988015 
2.85117 -0.812161 -0.0391149 40 44 36 -0.00865582 0.095214 0.995419 
2.86684 -0.812018 -0.0395585 40 44 36 0.0577527 0.00825039 0.998297 
2.13266 -0.795502 -0.0201668 46 54 48 0.0247647 -0.0412744 0.998841 
2.15113 -0.791526 -0.0203741 40 49 50 0.0251799 -0.0419665 0.998802 
2.17005 -0.790112 -0.0208156 35 45 40 0.0247647 -0.0412744 0.998841 
2.19007 -0.789764 -0.0211061 35 45 40 0.0247782 -0.0247782 0.999386 
2.21027 -0.789925 -0.0220764 34 43 39 0.0243822 -0.0081274 0.99967 
2.22411 -0.79037 -0.0212604 33 41 33 -0.268037 0.0297819 0.962948 
2.29934 -0.799495 -0.0216915 22 28 59 0.403894 -0.534182 0.742643 
2.31251 -0.792948 -0.024116 37 36 22 0.295058 -0.295058 0.90878 
2.32998 -0.790676 -0.0260787 32 33 24 0.00879123 -0.114286 0.993409 
2.34991 -0.79007 -0.0260249 30 33 23 0.00852152 -0.0766937 0.997018 
2.37017 -0.790344 -0.0264588 27 31 22 0.0251799 -0.0419665 0.998802 
2.38998 -0.790121 -0.0264473 23 28 20 -0.0255869 -0.0597027 0.997888 
2.40992 -0.789838 -0.0259821 22 29 21 -0.00825039 -0.0577527 0.998297 
2.42962 -0.789955 -0.02619 22 27 19 0.0081274 -0.0243822 0.99967 
2.44998 -0.790036 -0.0257102 24 30 21 -0.0412744 -0.0247647 0.998841 
2.46988 -0.78988 -0.0256961 24 29 22 0.0412744 -0.0247647 0.998841 
2.48968 -0.789732 -0.0267752 21 26 18 0.0597027 -0.0255869 0.997888 
2.50966 -0.789928 -0.0278689 19 25 19 0.0419665 -0.0251799 0.998802 
2.53022 -0.790351 -0.0289496 20 25 21 0.0587034 -0.0251586 0.997958 
2.55027 -0.789697 -0.0298944 20 25 17 0.0412744 -0.0247647 0.998841 
2.56988 -0.78993 -0.0302852 22 26 21 0.00825713 -0.0412857 0.999113 
2.58969 -0.790392 -0.031034 19 23 23 0.059668 -0.04262 0.997308 
2.60968 -0.790657 -0.0322541 18 22 19 0.0412857 -0.00825713 0.999113 
2.62927 -0.790675 -0.0329437 20 22 17 0.0239923 0.00799744 0.99968 
2.65031 -0.78971 -0.0334846 19 22 21 0.0239923 0.00799744 0.99968 
2.66936 -0.789892 -0.0341065 17 22 20 0.0577527 -0.00825039 0.998297 
2.69007 -0.790046 -0.0358158 18 21 18 0.112324 -0.0086403 0.993634 
2.70987 -0.789566 -0.0368293 19 23 15 -0.0951855 -0.0259597 0.995121 
2.72722 -0.790562 -0.0280512 28 30 14 -0.810755 -0.105751 0.575754 
2.06896 -0.761342 -0.0362209 44 51 39 -0.671713 -0.740023 -0.0341549 
2.15909 -0.779158 -0.0200752 34 44 53 0.0251799 -0.0419665 0.998802 
2.17221 -0.775223 -0.0202446 37 43 39 0.0251799 -0.0419665 0.998802 
2.19025 -0.770429 -0.0206711 32 41 38 0.0419665 -0.0251799 0.998802 
2.21013 -0.769913 -0.0217129 31 39 34 0.0251799 -0.0419665 0.998802 
2.22526 -0.76901 -0.0211419 29 37 30 -0.174828 -0.00920146 0.984556 
2.31626 -0.769007 -0.0212228 29 31 13 0.286428 -0.00987681 0.958051 
2.33067 -0.770317 -0.0234883 24 27 15 0.0637656 -0.100203 0.992922 
2.35013 -0.770091 -0.0244006 19 25 14 0.0606453 -0.0606453 0.996315 
2.37028 -0.769646 -0.0251255 20 26 15 0.00837914 -0.0754122 0.997117 
2.39014 -0.76987 -0.0248653 21 26 16 -0.0255571 -0.0766714 0.996729 
2.41017 -0.77002 -0.0248191 18 23 16 0.0251586 -0.0587034 0.997958 
2.42993 -0.77015 -0.0253531 17 23 14 0.00838856 -0.05872 0.998239 
2.44976 -0.769983 -0.02482 24 28 22 -0.0440653 -0.0793175 0.995875 
2.47024 -0.769912 -0.0246589 18 23 16 0.0440653 -0.0793175 0.995875 
2.48967 -0.77024 -0.0258314 21 25 18 0.0606453 -0.0606453 0.996315 
2.51026 -0.769983 -0.0265351 21 26 17 0.0259986 -0.0779959 0.996615 
2.53039 -0.770245 -0.0278336 17 20 15 0.0984224 -0.0626325 0.993172 
2.54993 -0.770458 -0.0292875 19 22 17 0.0419665 -0.0251799 0.998802 
2.56968 -0.770248 -0.0296032 27 30 19 0.00787353 -0.00787353 0.999938 
2.58921 -0.769985 -0.0304915 24 26 22 0.0936009 0.00850917 0.995573 
2.60934 -0.769422 -0.0321463 26 26 20 0.0577527 -0.00825039 0.998297 
2.6295 -0.770193 -0.0329744 17 21 18 0.0406155 -0.0081231 0.999142 
2.64998 -0.770006 -0.0335889 20 22 17 0.0243822 0.0081274 0.99967 
2.67026 -0.769929 -0.03421 19 21 18 0.0412857 0.00825713 0.999113 
2.68932 -0.769744 -0.0355478 24 25 19 0.0936009 -0.00850917 0.995573 
2.71029 -0.770271 -0.0361927 22 23 18 -0.13387 -0.026774 0.990637 
2.72666 -0.770743 -0.0280472 30 29 17 -0.780721 0.056574 0.622314 
2.89617 -0.760264 -0.0397807 25 30 5 0.0982273 -0.360167 0.927702 
2.19526 -0.755861 -0.0202744 30 39 35 0.0606453 -0.0606453 0.996315 
2.21104 -0.751299 -0.0206881 27 35 32 0.0255571 -0.0766714 0.996729 
2.2246 -0.750876 -0.020518 25 34 28 -0.0793175 -0.0440653 0.995875 
2.25009 -0.747347 -0.0350276 15 25 1 0.850686 -0.332877 0.40685 
