# .PCD v0.7 - Point Cloud Data file format
VERSION 0.7
FIELDS x y z rgb normal_x normal_y normal_z curvature
SIZE 4 4 4 4 4 4 4 4
TYPE F F F F F F F F
COUNT 1 1 1 1 1 1 1 1
WIDTH 574
HEIGHT 1
VIEWPOINT 0 0 0 1 0 0 0
POINTS 574
DATA ascii
4.9772334 -0.75797659 0.87707132 0 0.90323591 0.536093 0.16941409 0.022734368
4.9614172 -0.73339635 0.88202882 0 0.91979319 0.50792295 0.13317612 0.029853046
4.9530258 -0.71366721 0.88498962 0 0.97953922 0.23096503 0.12109794 0.039913718
4.9531698 -0.69165152 0.8846451 0 0.98148954 -0.24255489 0.12900124 0.041382048
4.9721889 -0.65883797 0.88637245 0 0.90214998 -0.54427928 0.25460973 0.028557915
4.9818683 -0.63862216 0.89048475 0 0.91997731 -0.40202889 0.24538778 0.021062352
4.9882898 -0.61943871 0.89137191 0 0.95986682 -0.25988802 0.19221812 0.011030142
4.9937258 -0.58710283 0.89460397 0 0.99690109 -0.099289417 0.091606542 0.0061970046
4.9949074 -0.56126761 0.89705473 0 1.0001769 -0.052158311 0.018828174 0.0049084648
4.9954395 -0.54313534 0.88485688 0 1.0018895 -0.020275872 -0.041409813 0.0030748658
4.996172 -0.51261175 0.8889873 0 1.00177 0.046752963 -0.047340449 0.001720293
4.9929142 -0.48147067 0.88448972 0 1.0009272 0.041284505 -0.0038554654 0.00044544783
4.9930286 -0.46040842 0.88158083 0 0.9981643 -0.033924524 0.098027185 0.00045692659
4.9926434 -0.43039826 0.88885301 0 0.99775964 -0.012721725 0.16865644 0.00065003015
4.9922476 -0.41041872 0.89295191 0 0.99946654 -0.012854564 0.11949495 0.0011184108
4.9924684 -0.39120945 0.89663643 0 1.0012572 -0.052326482 0.039124765 0.0014464251
4.9976025 -0.35913193 0.88077736 0 0.99602085 0.10937111 0.16515854 0.0021619247
4.9936719 -0.33542871 0.87736315 0 0.9832958 0.20191453 -0.030314039 0.0032747732
4.989284 -0.31130448 0.88497555 0 0.9758411 0.21230462 -0.14024998 0.0052987114
4.9835854 -0.2885201 0.8813954 0 0.96814305 0.23989692 -0.16154192 0.0051514599
4.9761338 -0.25892827 0.88703877 0 0.9733842 0.24387224 -0.070250116 0.0048829294
4.9699893 -0.23778598 0.88596952 0 0.94359487 0.34723404 0.077823527 0.0060724597
4.9588542 -0.21452649 0.88536328 0 0.86456716 0.50573349 0.043028474 0.0065271719
4.9422054 -0.18917336 0.88811624 0 0.83074099 0.56121004 0.073445223 0.0079908306
0.70620328 -0.16627079 0.89975506 0 0.70418477 -2.0114126 0.020374583 0.012770595
2.6137028 -0.15681589 0.89232934 0 0.24441582 -0.95244282 0.32548946 0.089163452
4.3806238 -0.15465736 0.88238001 0 -0.81772906 -0.66834521 0.067848884 0.032420482
4.4099541 -0.17143761 0.88241571 0 -0.29577464 -0.96137816 -0.17454809 0.051398054
4.4416738 -0.1737294 0.88312519 0 0.31572911 -0.99263394 -0.2800779 0.047376003
4.4538069 -0.16752554 0.88293451 0 0.62573093 -0.91299731 -0.32194534 0.038269062
4.9152222 -0.15559979 0.89060324 0 0.73099291 0.69092989 0.18255003 0.0092629641
4.9295774 -0.17201124 0.89013577 0 0.78845716 0.61939114 0.070926294 0.008132102
0.73113179 -0.13896641 0.89925677 0 1.0012504 -0.15313676 -0.055768874 0.024398772
2.5663283 -0.1303805 0.88937038 0 -0.85237658 -0.73909557 -0.023198882 0.053614017
2.5781651 -0.1426899 0.89584708 0 -0.72647345 -0.812042 0.022270525 0.068000324
2.6387634 -0.13945797 0.89328873 0 0.85124505 -0.74001187 0.23190892 0.046287093
3.1629527 -0.12822945 0.89423144 0 -0.60117984 -0.91482902 0.014037868 0.030062065
3.1827309 -0.13721597 0.89144927 0 -0.22836696 -0.99162114 0.043627165 0.03820793
3.204412 -0.13590191 0.88660944 0 0.34080079 -0.96829247 -0.017740073 0.033114448
3.770961 -0.13248591 0.8846873 0 -0.43008217 -0.94079703 -0.070909597 0.038491376
3.78969 -0.13802846 0.87759614 0 -0.16379008 -1.0008227 -0.023403604 0.051886167
3.8039355 -0.1385536 0.87727046 0 0.085317157 -1.0005307 -0.0090728179 0.049896542
3.8342676 -0.12799576 0.87901211 0 0.5714004 -0.87396574 0.016371226 0.030134048
4.367095 -0.13372229 0.88543224 0 -0.97629172 -0.56073844 -0.0025645811 0.025637718
4.376193 -0.14853975 0.88487959 0 -0.90293837 -0.61948872 0.020876408 0.029706791
4.8924003 -0.13347429 0.89091396 0 -0.63524425 -0.78175378 -0.26331598 0.0087681506
4.9038305 -0.14670046 0.89885682 0 -0.71283537 -0.71451491 -0.27595648 0.0087114628
0.7321623 -0.11992427 0.89646477 0 1.0677148 -0.027744861 -0.055417072 0.02613103
2.6575367 -0.1164622 0.89008594 0 0.85299999 -0.73475891 0.01379096 0.023424773
3.133393 -0.10530283 0.87934303 0 -0.56623745 -0.88435799 0.053226274 0.014143337
3.1573241 -0.12449584 0.87527031 0 -0.67977786 -0.90297937 0.020809902 0.029599806
3.2416823 -0.10423249 0.87996447 0 0.50361943 -0.9165647 0.0083665848 0.015560227
3.738652 -0.11218371 0.88144922 0 -0.57845116 -0.87238461 -0.083811052 0.016570173
3.7532248 -0.12187127 0.87964058 0 -0.58832043 -0.88816971 -0.077774264 0.032971021
3.8596222 -0.10148067 0.89435577 0 0.61756313 -0.84145516 -0.0023150383 0.012536792
4.3560619 -0.11545242 0.8874945 0 -0.88877857 -0.60483283 -0.043837592 0.016322505
4.8637443 -0.11500683 0.89244324 0 -0.47707817 -0.89196962 -0.30921903 0.010269987
0.74025434 -0.087234057 0.89055175 0 1.039037 -0.28203925 -0.063307136 0.045435593
1.3113909 -0.091883458 0.8892079 0 -0.3794325 -0.99194282 0.42649767 0.040273417
1.3489509 -0.084689088 0.88603026 0 0.83923441 -0.89396286 0.29650703 0.031915441
1.3561945 -0.077176429 0.88671094 0 0.91506863 -0.84509891 0.16333459 0.027181113
1.940749 -0.080264971 0.8910526 0 -0.66515774 -0.88710308 -0.46742201 0.022383707
1.9650908 -0.08910618 0.87669837 0 -0.20815207 -0.98656505 -0.19153196 0.028437054
1.9905481 -0.091066889 0.89725262 0 0.54657346 -0.9560622 -0.1792406 0.025577646
2.0126989 -0.076253399 0.89564645 0 0.58441788 -0.9230001 -0.093609639 0.015138222
2.4911876 -0.076311588 0.88827723 0 -0.15273243 -1.0044718 -0.026154552 0.019864008
2.5133238 -0.082331806 0.88735378 0 -0.39226305 -0.92128897 -0.026781889 0.019390518
2.5351205 -0.09610492 0.8849135 0 -0.66306156 -0.78348655 -0.029489947 0.02046546
2.6883705 -0.090614401 0.88822651 0 0.44357112 -0.90407252 -0.091177531 0.022031669
2.7097766 -0.083588772 0.89026618 0 0.19853376 -0.98260772 -0.093720511 0.017524801
2.7286813 -0.081487142 0.89076567 0 0.039676789 -1.0095874 -0.10036179 0.01759381
2.7565875 -0.08206702 0.89001495 0 -0.072728664 -1.0066668 -0.10048613 0.0077076671
2.78566 -0.084520146 0.89078534 0 -0.074326538 -1.0013788 -0.082212485 0.0025349462
2.8129373 -0.085985743 0.88940364 0 -0.052858379 -1.0001347 -0.043359578 0.0019196498
2.8381875 -0.087006338 0.8915714 0 -0.010706307 -1.0010382 -0.023339342 0.002176818
2.8646173 -0.086604699 0.89106441 0 0.014846759 -1.0018458 -0.044679832 0.0024877451
2.891201 -0.086200282 0.88352907 0 0.009495209 -1.0003533 0.0050414563 0.002596216
2.9163444 -0.085846767 0.88360369 0 0.019550327 -1.0007223 -0.0056235082 0.002723868
2.9371088 -0.085409142 0.88304788 0 0.021363525 -1.0011187 -0.029816378 0.0027993813
2.9641984 -0.084839217 0.88112813 0 0.011743267 -1.0024649 -0.091991879 0.0028648374
2.9854124 -0.084968835 0.88356888 0 0.0047490289 -1.0027889 -0.1198281 0.0029460513
3.0111837 -0.084831342 0.88367468 0 0.0053314776 -1.0036657 -0.1166271 0.0026049342
3.036552 -0.08493147 0.88377452 0 -0.022615695 -1.0031447 -0.10512662 0.0034441901
3.0603127 -0.086206421 0.88457048 0 -0.082594089 -1.000577 -0.07860031 0.0082452334
3.0849025 -0.089129187 0.88140255 0 -0.16158567 -0.98833096 -0.002351647 0.0098790508
3.1069181 -0.093770817 0.88447589 0 -0.27420437 -0.96165121 0.01373398 0.0082026739
3.2569683 -0.097560793 0.88159025 0 0.31567565 -0.95240021 -0.009527442 0.0089128958
3.2867665 -0.092639506 0.87670004 0 0.019195011 -1.012691 0.11586923 0.011248671
3.3113718 -0.093354575 0.87786376 0 -0.047074258 -1.0072631 0.12390307 0.0084114177
3.3394704 -0.094019674 0.87682271 0 0.0068582781 -0.99564809 0.13942161 0.0014824504
3.3635864 -0.093574502 0.87860817 0 -0.0090165706 -0.9952997 0.13140129 0.0004206778
3.3851154 -0.094247431 0.87876987 0 -0.051317103 -0.99582958 0.12126989 0.00043860896
3.4151504 -0.096496634 0.87694132 0 -0.017322907 -0.99638176 0.11073464 0.00043999855
3.4386141 -0.095923856 0.87777829 0 0.049316872 -0.99608797 0.093670852 0.00040769193
3.4606774 -0.094541758 0.87915379 0 0.053892083 -0.99666733 0.075280793 0.00038510113
3.481653 -0.093568593 0.87896526 0 0.047018267 -0.99713695 0.066909693 0.00038548041
3.5108664 -0.092075802 0.87978715 0 0.02541752 -0.99827319 0.053381722 0.00040058669
3.537333 -0.091972053 0.87992728 0 0.014987911 -0.99936336 0.034892019 0.00040915349
3.5662336 -0.091250449 0.88063025 0 0.017608026 -1.0022547 -0.035754118 0.00041803342
3.5881801 -0.090991229 0.88037169 0 0.0096875494 -1.0050454 -0.10969226 0.00048272248
3.6065993 -0.091002896 0.88088143 0 -0.0026185941 -1.0072683 -0.16236238 0.0009408305
3.6299119 -0.091455154 0.88129824 0 -0.026686639 -1.0106491 -0.22373486 0.0028600839
3.6582904 -0.092571616 0.88126343 0 -0.010635173 -1.0237627 -0.30883214 0.0091243684
3.6874871 -0.092122085 0.88031048 0 -0.10131163 -1.0151807 -0.17208108 0.011564323
3.716327 -0.099852331 0.88334954 0 -0.40307662 -0.92483425 -0.081079699 0.010480694
3.869168 -0.095197871 0.88223708 0 0.44660768 -0.90830469 -0.048078369 0.013345916
3.8838148 -0.089809507 0.8834672 0 0.25066561 -0.97053689 0.0070911739 0.013602911
3.9117594 -0.086664498 0.88400376 0 -0.014922249 -1.0202038 0.054540057 0.012342433
3.9361193 -0.088291459 0.88377064 0 -0.084757864 -1.0122046 0.072138377 0.0070590335
3.956598 -0.089792758 0.88389659 0 -0.05899993 -1.0024462 0.078652702 0.0027119683
3.98086 -0.090677895 0.88382137 0 -0.0087316949 -0.99941951 0.047297806 0.0011652149
4.0115891 -0.089926794 0.88408202 0 0.046328653 -0.99975222 0.0059384503 0.0011034097
4.0386505 -0.088622682 0.88422006 0 0.012631925 -0.99964231 0.027943756 0.0012586525
4.0600471 -0.088395245 0.88435411 0 0.02815883 -0.99943811 0.022260306 0.0013565565
4.0866518 -0.086891785 0.88415504 0 0.087574966 -0.99671906 0.030617964 0.0012904577
4.1130776 -0.084081799 0.88808632 0 0.011434169 -0.99826884 0.083121866 0.0012546914
4.1398654 -0.085784994 0.88409895 0 0.0023660637 -1.0010383 0.0026827846 0.0010452194
4.1647344 -0.082537927 0.89377892 0 0.16712226 -0.99366534 0.006816579 0.00087445974
4.1781392 -0.080090441 0.8876102 0 0.15155004 -0.99638581 -0.055720728 0.00098001549
4.2132597 -0.079898059 0.88678992 0 -0.035510845 -1.0017185 -0.029247252 0.0018368288
4.2408509 -0.080521815 0.88791198 0 0.022775915 -1.0048059 -0.035387237 0.0058749542
4.2558637 -0.079952598 0.88758981 0 0.049263604 -1.0117756 -0.0072967932 0.0098841134
4.28371 -0.078954995 0.88778543 0 -0.0064925659 -1.0294423 -0.020764325 0.022763638
4.3143835 -0.083126642 0.8882401 0 -0.31396806 -0.96123779 -0.079295889 0.028183104
4.3383965 -0.096268333 0.88788509 0 -0.63304442 -0.78355277 -0.095393576 0.019878864
4.5444779 -0.097897798 0.89090466 0 -0.078237504 -1.1319592 -1.0614808 0.006528595
4.5649829 -0.099442869 0.89131403 0 0.072615512 -1.0290691 -0.71041811 0.0086823395
4.5877132 -0.095641039 0.88988286 0 0.22610703 -0.97425359 -0.19445686 0.0093659209
4.6158867 -0.086826116 0.8906644 0 0.27591574 -0.96958995 -0.018049017 0.0065964749
4.6473131 -0.081062965 0.89169455 0 0.03264159 -1.0003492 0.062480096 0.0035142105
4.6700873 -0.081150837 0.89222354 0 -0.00092602818 -1.0021904 0.031072391 0.0036098862
4.6821389 -0.080937177 0.89188242 0 0.040923133 -0.99936438 0.0096663972 0.0028181993
4.7189159 -0.07685294 0.89339954 0 0.0062272102 -1.0054666 -0.15624516 0.0052615097
4.7374649 -0.077709429 0.89330906 0 -0.094573326 -1.002811 -0.18991488 0.0051060827
4.7555914 -0.079913765 0.89315814 0 -0.12572245 -0.99839485 -0.20820865 0.0076213451
4.7903056 -0.081931874 0.89378315 0 -0.2485842 -0.97867382 -0.36517066 0.0091557251
4.8197351 -0.094199002 0.89281976 0 -0.45108753 -0.90257615 -0.31927541 0.01083835
4.8319845 -0.098831922 0.88807118 0 -0.44811782 -0.89777023 -0.25540552 0.0099979956
0.74878234 -0.059945382 0.88779706 0 0.92242616 -0.46259728 -0.1215921 0.050240312
1.3720829 -0.059466951 0.89579517 0 0.78738719 -0.84100354 0.11501886 0.022537176
1.3799813 -0.05275844 0.88789445 0 0.69443226 -0.85278571 -0.031202847 0.018095821
1.9109412 -0.058001537 0.89448583 0 -0.54071498 -0.88781029 -0.097456418 0.012310431
1.9290204 -0.074081123 0.89680564 0 -0.79198623 -0.85381925 -0.64437985 0.021172198
2.031697 -0.066008233 0.8924644 0 0.39493337 -0.94379544 -0.075403675 0.0092740599
2.0677791 -0.058730174 0.88849294 0 0.04484899 -1.0028272 -0.043928362 0.0096166236
2.0923855 -0.059060864 0.88853705 0 -0.064069018 -1.0051619 -0.011475066 0.0055368752
2.1195376 -0.061233468 0.88718534 0 -0.054222587 -1.0000004 0.011618706 0.0025899366
2.140918 -0.062114332 0.88713109 0 -0.040327799 -0.99926722 -0.0052858056 0.00096047268
2.1613064 -0.06312488 0.88756639 0 -0.058202807 -0.99883032 -0.037308771 0.00064092001
2.1841798 -0.064634226 0.88737404 0 -0.063158907 -0.99904734 -0.071735762 0.00063602312
2.2100437 -0.065863095 0.88736492 0 -0.022961346 -1.0011816 -0.07964018 0.00062899286
2.2346878 -0.066141188 0.88765574 0 -0.02590847 -1.0009362 -0.066917822 0.00061133242
2.25635 -0.067286395 0.88934654 0 -0.059846118 -1.0002278 -0.083558515 0.00054275041
2.2865319 -0.069456138 0.88703829 0 -0.070692159 -1.0019201 -0.10819841 0.00050432922
2.3118656 -0.070807874 0.88882965 0 -0.015048618 -1.003983 -0.10250573 0.00041702049
2.3352127 -0.071036927 0.89218533 0 0.016112324 -1.0041806 -0.066899121 0.00048802627
2.3614867 -0.070518181 0.89217514 0 -0.0004925949 -1.0034007 -0.059796266 0.0005579213
2.3919332 -0.071870223 0.89031523 0 -0.081387006 -1.0006065 -0.051967598 0.00060418289
2.4125574 -0.073212832 0.88488495 0 -0.061625965 -1.0010999 -0.056167647 0.0010862582
2.4334421 -0.07431151 0.89170605 0 -0.024867328 -1.003315 -0.022211678 0.0032695737
2.4623861 -0.074490391 0.8879596 0 -0.014735779 -1.0149246 -0.034348466 0.0098451898
0.76497757 -0.041181397 0.89331144 0 0.59650439 -0.80321354 -0.048232689 0.043587219
0.7915169 -0.030001564 0.89585316 0 0.22214612 -1.0131402 0.0039108503 0.042375315
0.81425047 -0.027084921 0.87684292 0 0.058381949 -1.0150105 0.0071597761 0.021413164
0.84043139 -0.025192084 0.89573139 0 -0.0070461156 -1.0124608 -0.02061991 0.014585584
1.2061645 -0.025451766 0.88584954 0 -0.17814064 -0.9837845 -0.048620109 0.0061370283
1.2354479 -0.036700107 0.88700539 0 -0.52174586 -0.89368278 0.12148086 0.0090888618
1.4101667 -0.037128322 0.88494182 0 0.29047644 -0.95747364 -0.0029340219 0.013075227
1.4410802 -0.032786958 0.88458544 0 -0.016696436 -1.0166312 -0.021753997 0.014073028
1.4717388 -0.03515308 0.88411891 0 -0.070320718 -1.0039339 -0.037467781 0.0051521617
1.4965822 -0.036582366 0.88579738 0 -0.040623736 -0.99962848 -0.05278546 0.0014637377
1.5066211 -0.037212525 0.89121467 0 -0.023893192 -1.0000086 -0.057431716 0.00058145868
1.5360264 -0.037099034 0.88567716 0 -0.012546704 -1.0004202 -0.014962922 0.00043015386
1.5583587 -0.037602574 0.88608974 0 -0.027720422 -0.99955016 0.026023382 0.00046514638
1.5797806 -0.038201198 0.88633955 0 -0.027170502 -0.99952275 0.032204174 0.0004457343
1.612847 -0.038854349 0.88608855 0 -0.044722836 -0.99898452 0.014774064 0.00043684736
1.6433363 -0.040789369 0.88667822 0 -0.058169872 -0.99876767 -0.0042531788 0.00044287625
1.6627343 -0.041770179 0.88730323 0 -0.036990002 -0.99945688 -0.013978562 0.00050098932
1.6821368 -0.042268082 0.88810635 0 -0.015474752 -0.99988657 0.0036967923 0.00052960939
1.7139338 -0.041920457 0.88723111 0 0.0043256646 -1.000104 0.051723532 0.00047056083
1.7336183 -0.041986678 0.8889066 0 -0.012876575 -0.99991912 0.0016292048 0.00040852072
1.762269 -0.042703815 0.88842082 0 -0.020814149 -0.99993002 -0.023662914 0.00035839688
1.7964499 -0.043406986 0.88874286 0 -0.042386845 -0.99941671 -0.02533233 0.00073849061
1.8176136 -0.044484496 0.88995147 0 -0.050478134 -0.999327 -0.0041302182 0.003665644
1.8429757 -0.045609638 0.89091378 0 -0.043230686 -1.003621 -0.0040823654 0.0062038833
1.8583883 -0.046380058 0.88812572 0 -0.058574609 -1.0069741 0.025873879 0.0070615271
1.8793091 -0.048208315 0.89152938 0 -0.13889611 -0.99957478 0.019093702 0.0092247277
0.85498291 -0.024772802 0.87935096 0 0.030117106 -1.0001062 -0.0092184907 0.0038735494
0.88918954 -0.023710271 0.89178979 0 0.010941538 -0.99950838 -0.064327508 0.00044052719
0.92210597 -0.024878789 0.89279062 0 -0.023415484 -0.99998218 -0.026286423 0.00033910305
0.93111098 -0.024649203 0.87903345 0 0.026155353 -0.99969584 -0.012050207 0.00032974506
0.95622861 -0.024300437 0.88860333 0 0.041725237 -0.99833679 -0.082591325 0.00031383868
0.97790253 -0.024068376 0.89628488 0 0.038899913 -0.99741149 -0.12435416 0.00029497661
1.0127411 -0.023994286 0.89363623 0 0.019754387 -0.99839854 -0.090077475 0.00037135032
1.0412793 -0.021911655 0.880683 0 0.025426401 -0.99928951 -0.07317587 0.00045328512
1.0603439 -0.022927789 0.89529318 0 -0.01100967 -0.99857605 -0.095933482 0.00043393188
1.086538 -0.022989197 0.88175792 0 -0.06190801 -0.99887758 -0.052329514 0.00057192257
1.1141378 -0.024765687 0.89050043 0 -0.037634887 -0.9990015 -0.052559361 0.0005870476
1.1357368 -0.024845345 0.88304949 0 0.0067210426 -1.001054 -0.049532562 0.0014680271
1.1599737 -0.024375526 0.88601983 0 0.041903816 -1.006982 -0.06407699 0.0033023756
1.1790571 -0.023895899 0.88910413 0 0.014531965 -1.0082848 -0.077305987 0.0041334387
-1.7724241 -4.0306864 0.92230147 0 1.0244182 0.43725631 0.68015552 0.010441034
-1.7757053 -3.9975443 0.91594601 0 0.99492419 -0.088701412 -0.26225352 0.014227038
-1.7740369 -3.9883804 0.92025906 0 1.003289 -0.19726871 0.044663172 0.015199309
-1.7763311 -3.9615457 0.91054702 0 0.98439807 -0.2531592 -0.92091244 0.017846351
-1.7724178 -3.9558535 0.91389626 0 0.99238199 -0.32135057 -0.38587397 0.017846351
-1.7646154 -3.9183474 0.9060511 0 1.0346402 0.85393548 0.32194832 0.021683218
-1.7722355 -3.8870182 0.90296143 0 0.95926601 -0.48574221 -0.39057472 0.020811705
-1.7889347 -3.7809594 0.92461383 0 0.98826092 -0.19888888 -0.74466199 0.016575307
-1.7801938 -3.7436697 0.92165446 0 1.014439 -0.089206174 -0.41223174 0.016298851
-1.7813481 -3.7077057 0.92082971 0 1.0636022 0.15657873 -1.6117631 0.013104266
-1.7941015 -3.6827912 0.91534328 0 1.0717691 -0.027694218 -2.2999969 0.014886339
-1.7942685 -3.6535101 0.91221523 0 1.0339541 -0.76489413 -3.4392257 0.013289206
-1.7704866 -3.6651587 0.92249602 0 1.0318561 -0.65641928 -2.9201488 0.015147986
-1.7604326 -3.6297691 0.91568583 0 0.83821785 -0.60850656 -3.4410579 0.011774089
-1.7613057 -3.612685 0.91309017 0 1.0085269 0.18848468 0.014640708 0.01121929
-1.7770928 -3.5782743 0.91767657 0 1.0597124 0.22437736 0.69927371 0.0080373017
-1.7663641 -3.5934973 0.91010517 0 1.0613457 0.44197071 0.80382544 0.009835504
-1.7808268 -3.5671685 0.92097992 0 1.0489315 0.12171946 0.51757699 0.0080437222
-1.7703315 -3.5631371 0.90305138 0 1.0611483 0.17099594 0.69515193 0.0057536382
-1.7776021 -3.543673 0.91314381 0 1.0519687 -0.025460694 0.52798605 0.0054934272
-1.7739881 -3.5129662 0.90742314 0 1.0264246 -0.014607404 0.24578471 0.003708889
-1.7752186 -3.485925 0.90596598 0 1.0148188 0.11814266 0.096874759 0.0036106897
-1.7768931 -3.4702628 0.90700066 0 1.004794 0.087818392 -0.0079434132 0.0032290323
-1.7747182 -3.4330232 0.91042793 0 0.99896473 -0.11978558 -0.03761556 0.0027812535
-1.7724512 -3.4241507 0.92450559 0 0.98951328 -0.11998551 -0.14635332 0.0022061733
-1.7696608 -3.3909018 0.91811305 0 0.99640352 -0.11303741 -0.066999845 0.0023200922
-1.7686621 -3.3592041 0.90986633 0 0.99965537 -0.044112857 -0.032992564 0.0018937152
-1.7664624 -3.3256142 0.90237808 0 0.99625617 -0.036023933 -0.080621667 0.001630093
-1.7664195 -3.324544 0.90243548 0 0.99612242 -0.035611942 -0.08294636 0.001630093
-1.7641554 -3.2564974 0.92435312 0 1.0045592 0.12040887 -0.10869536 0.0017179198
-1.7642766 -3.2289 0.91586637 0 1.0066019 -0.020917049 0.20130263 0.0014440583
-1.76215 -3.2025549 0.9178856 0 0.99452984 -0.18344894 0.16879305 0.0013842466
-1.758691 -3.1828601 0.92089379 0 0.99369144 -0.17937142 0.087075375 0.0015102737
-1.7556324 -3.157547 0.91839981 0 1.0004237 -0.036747657 0.020248994 0.0014106265
-1.7556288 -3.1440005 0.91433203 0 1.0042108 0.036908634 0.0033277692 0.0011931815
-1.7570261 -3.1187885 0.91474301 0 1.0015012 0.051930409 -0.081938595 0.0010009434
-1.7579085 -3.0900354 0.91131878 0 0.99151814 -0.017377054 -0.19034173 0.00056089833
-1.7561294 -3.0594172 0.90856725 0 0.9868598 -0.099688694 -0.20305142 0.00041567383
-1.7535663 -3.0306892 0.90781868 0 0.99595261 -0.11186098 -0.058724668 0.00041468174
-1.7523075 -3.0166895 0.90470719 0 0.99589276 -0.088497289 -0.074131019 0.00042174003
-1.7517518 -2.9944391 0.90253991 0 0.99449718 0.03736693 -0.12668774 0.00057244895
-1.7515473 -2.9361248 0.91962612 0 0.99850625 0.01083575 -0.058173142 0.00052438484
-1.751983 -2.9236538 0.91594255 0 0.99831241 0.034859139 -0.054340038 0.00058098848
-1.7542659 -2.8940158 0.90721345 0 1.0010197 0.0055684783 0.02163092 0.00072709232
-1.7521552 -2.865634 0.90107375 0 1.0011126 -0.027205266 0.027437704 0.0011707685
-1.7566472 -2.8404222 0.9194997 0 1.0025641 -0.027006991 0.14029925 0.0010831659
-1.7558756 -2.8185267 0.92156982 0 0.99900693 -0.046971899 -0.0013012291 0.001170438
-1.7539949 -2.7944815 0.91913801 0 0.99657267 -0.092868477 0.040362064 0.0012638485
-1.7511357 -2.7704077 0.91314989 0 0.995022 -0.11096505 0.062589601 0.001664261
-1.7483255 -2.7457166 0.91241014 0 0.99584615 -0.09987323 0.052765183 0.0016852566
-1.7463038 -2.7195103 0.91508937 0 0.99818575 -0.073680677 0.0030545874 0.0027803495
-1.7458668 -2.6778045 0.91545671 0 1.0346154 0.2220628 -0.26808479 0.0038788209
-1.7559274 -2.6512434 0.90270168 0 1.0663973 0.46473736 0.31839958 0.0045179576
-1.7280277 -2.5131958 0.92403579 0 0.99986178 -0.018654354 0.85528272 0.0033770457
-1.7216874 -2.477581 0.91964132 0 1.0433117 0.28975135 1.6601794 0.003698885
-1.7340137 -2.4645445 0.92483544 0 1.0319444 0.39801806 1.3927541 0.0035850357
-1.7315248 -2.4467809 0.91650808 0 1.0019078 0.073284112 0.081415445 0.0034102378
-1.7319218 -2.4073091 0.91343755 0 1.0020378 0.11660586 0.14436367 0.0037394359
-1.7354463 -2.3789561 0.90954202 0 1.0084422 0.11871619 0.27160436 0.0034824298
-1.743731 -2.3562853 0.91920584 0 1.0228763 0.19535065 0.52205867 0.0036713574
-1.7430023 -2.3444865 0.91405672 0 1.0281128 0.13922657 0.53559601 0.028561199
-1.7411973 -2.3152568 0.90647388 0 1.0142708 0.0065262928 0.26250064 0.064165868
-1.8413724 -2.2819488 0.90278453 0 -29.745937 3.8695986 54.086685 0.26898846
-1.7424833 -2.2884183 0.90859598 0 1.0141792 0.0012742354 0.31020951 0.063604392
-1.7396152 -2.2602739 0.90312135 0 1.0050926 -0.073815927 0.26038891 0.055088054
0.487654 -2.2065043 0.91094279 0 0.93929392 0.041263461 -0.40928069 0.0095173223
0.48780918 -2.1870849 0.91014653 0 0.92295122 -0.049344257 -0.585392 0.0077082338
-1.7310885 -2.1622808 0.92349589 0 1.0066416 -0.0038517343 0.12341172 0.0012378461
0.4907853 -2.1668303 0.9141525 0 0.89785814 0.058204066 -0.62227345 0.0065960763
-1.7313988 -2.1332996 0.91723722 0 1.0044117 0.074829906 0.09295544 0.00091854209
0.48178658 -2.1309781 0.91989535 0 0.92284828 0.40082967 -0.27304527 0.005919754
-1.7340682 -2.10658 0.91180837 0 0.99542576 0.11170562 -0.071593702 0.00097810326
0.47380459 -2.1137822 0.91402191 0 0.95720804 0.27141875 -0.19971792 0.0059995949
-1.7357495 -2.0896766 0.91356409 0 0.99935049 0.082922265 0.0084170494 0.0010592699
0.46980736 -2.0885849 0.90796447 0 1.0034112 -0.037559353 -0.12671885 0.0065849088
-1.7370849 -2.0628109 0.9066726 0 0.99827349 0.017862486 -0.058231633 0.0011378044
0.47299343 -2.0647089 0.90673947 0 1.0059189 -0.20530108 -0.12615113 0.0054339785
-1.7372857 -2.0385039 0.91742271 0 1.0008307 -0.015766047 0.019099873 0.00072694517
0.48052779 -2.0380509 0.9163034 0 1.0009632 -0.22108102 -0.10052463 0.0031610066
-1.7369146 -2.0158587 0.91864306 0 1.0008273 -0.0059518591 0.032009337 0.0006380725
0.48010734 -2.0093179 0.90309286 0 0.9347052 0.0092391744 -0.3932721 0.0020272445
-1.7369094 -1.9885231 0.91032678 0 1.0009469 0.014916616 0.03126809 0.00048780727
0.47851732 -1.9800714 0.90281886 0 0.9407801 0.0070997044 -0.35823539 0.003850111
-1.7372723 -1.9633946 0.90721184 0 1.001045 0.017114626 0.028922049 0.00038630189
0.48166314 -1.9579664 0.91290116 0 0.97059429 -0.02867195 -0.25134602 0.0073069502
-1.737715 -1.9402946 0.91772217 0 1.000123 -0.01606632 0.017897766 0.00030686421
0.48067379 -1.9356229 0.90820414 0 0.95658708 0.027718928 -0.30699927 0.0080614928
-1.7368082 -1.9130409 0.90853441 0 0.99953508 -0.034848705 -0.019467218 0.00030896327
0.48262048 -1.9152083 0.91878563 0 0.93989491 0.12710878 -0.33766705 0.012450466
4.8648419 -1.9037172 0.90296209 0 1.9020677 0.30123186 0.15911891 0.035622329
-1.7349972 -1.8826621 0.92243189 0 0.99939841 -0.032852285 -0.029435541 0.00032944206
0.46933043 -1.88805 0.90961134 0 0.831074 0.43911159 -0.46947247 0.015703933
4.8621097 -1.8835649 0.90960753 0 1.2636296 -0.090988196 0.47803956 0.032669283
-1.7349505 -1.8600879 0.9149555 0 0.99978691 0.016073445 -0.029558152 0.0003150024
0.45673516 -1.8648756 0.91321278 0 0.79288095 0.53715312 -0.42486647 0.034085646
4.8682327 -1.8634659 0.91192853 0 0.74537963 -0.58277518 0.4276728 0.027699796
4.8859115 -1.8517873 0.90271729 0 0.47679788 -0.83137017 0.313748 0.024745541
-1.7361697 -1.8341925 0.90454191 0 1.0003988 0.041776389 -0.00056099775 0.00034295337
0.44363219 -1.8453707 0.91533291 0 0.77331007 0.61811095 -0.20934008 0.033329442
4.9081225 -1.8390145 0.92007375 0 0.25643033 -1.0771232 0.082827449 0.022230724
4.9406896 -1.832033 0.91638541 0 0.3815279 -1.0429844 -0.04857827 0.031156333
4.9500422 -1.8272406 0.90374625 0 0.51892185 -0.9238711 -0.023429232 0.038710244
-1.7374018 -1.815238 0.92087483 0 1.0015367 0.044920277 0.026989477 0.00041681412
0.41686541 -1.8153812 0.91301143 0 0.82228971 0.67031652 0.47506696 0.035681088
4.969007 -1.8111088 0.91178042 0 0.80613458 -0.60234916 0.028490089 0.042156991
-1.7375177 -1.7885485 0.9104678 0 1.0018247 -0.0016101011 0.030039558 0.00052037195
4.9781179 -1.7930187 0.91352338 0 0.95936328 -0.30562839 0.071766771 0.04263825
-1.7368735 -1.7622157 0.92101425 0 0.99924648 -0.035009611 -0.03939658 0.00076369196
4.983079 -1.7663569 0.90646708 0 1.0066887 -0.069945887 0.067120545 0.030500766
-1.7370502 -1.7399553 0.91137344 0 0.99722874 -0.0057962351 -0.090206563 0.0010391098
4.9832926 -1.7390112 0.91280353 0 1.0081922 0.033688117 0.073105626 0.013471324
-1.7368728 -1.7163863 0.91213435 0 0.99422216 0.0067480258 -0.14095595 0.0010916909
4.9820633 -1.7173541 0.906214 0 1.0063217 0.11649536 0.011626163 0.0048519759
-1.737779 -1.6896946 0.91103536 0 0.99386036 0.056207616 -0.17532949 0.0019210359
4.9765821 -1.6832148 0.90905231 0 1.0012282 0.096358687 -0.01550623 0.0012535357
-1.7393091 -1.6613462 0.91392779 0 0.99710798 0.057373948 -0.17120554 0.0029362284
4.9750605 -1.6590825 0.91599292 0 1.0027488 0.093047798 -0.04803104 0.0015461601
-1.7397505 -1.6406573 0.91388875 0 0.99754739 -0.025341246 -0.1130625 0.0040261974
4.9736762 -1.6472555 0.91611779 0 0.9989292 0.14611439 -0.0093381656 0.0018307982
-1.7321481 -1.6036544 0.90865725 0 0.95809174 -0.43101171 0.22010075 0.0043136845
-1.731006 -1.5997753 0.91123784 0 0.95962441 -0.4297168 0.20635025 0.0041520246
-1.7243237 -1.5836573 0.91271228 0 0.95689029 -0.393291 0.22892927 0.0043595633
-1.7146791 -1.5522555 0.91070807 0 0.97908866 -0.21432966 0.021572469 0.0045503895
-1.7109796 -1.5323378 0.91374201 0 0.99116343 -0.12866558 0.038679805 0.0063688802
-1.7106308 -1.5246587 0.90457433 0 1.0081795 -0.037932146 -0.12020879 0.0067497622
-1.7169348 -1.4595232 0.92087501 0 1.0394439 0.090403102 -0.61966985 0.0063921926
-1.7261391 -1.4318748 0.913342 0 0.98591524 0.068858497 -1.2465113 0.0075452314
-1.7239238 -1.4328511 0.91510552 0 0.99103892 0.047886014 -1.1727296 0.0070441994
-1.7062813 -1.3339157 0.91820204 0 1.0357976 -0.23125669 -1.3003379 0.0092502916
-1.687866 -1.2664008 0.92459756 0 1.0136306 0.032044541 0.2600024 0.016991112
-1.6885924 -1.2389408 0.91524827 0 1.0404356 0.16771787 0.12326924 0.020676399
-1.6944126 -1.2116854 0.90715158 0 0.97668952 0.22015679 -0.16722411 0.018051228
-1.699597 -1.1754678 0.9179852 0 1.0077411 0.13633178 -0.032696623 0.014111346
-1.6997701 -1.1743408 0.91748112 0 1.0078216 0.13807122 -0.03939693 0.014044226
-1.7074944 -1.1410222 0.91434187 0 0.96473569 0.31019598 -0.14479166 0.015610145
-1.7131838 -1.1214875 0.92003316 0 0.9515999 0.28727657 -0.22762838 0.017631955
-1.724027 -1.0817692 0.90955728 0 0.99611205 0.12471639 -0.081393868 0.027815569
-1.7261872 -1.0589453 0.91480309 0 1.0283079 0.040299948 0.16379046 0.029809639
-1.724259 -1.059855 0.90294331 0 1.043804 -0.10029076 0.16304894 0.032359868
4.9762812 -1.0591857 0.91324866 0 1.045305 0.35490391 0.05498071 0.017811114
-1.7288442 -1.0423663 0.92480683 0 1.0230534 -0.024091847 0.31221125 0.026268266
-1.7224915 -1.0364078 0.91002697 0 1.0611691 -0.23113953 0.43360469 0.035278063
4.9720497 -1.0301425 0.90673798 0 0.99636692 -0.11506439 0.040769402 0.012345101
-1.7196895 -1.0137686 0.91605031 0 0.99977595 -0.18591359 0.46389386 0.023464585
4.9777431 -1.0024953 0.90257251 0 0.99802387 -0.23278441 0.011120321 0.0092769954
-1.7200536 -0.98462802 0.90909934 0 0.98636639 0.55628335 0.14073177 0.021777969
4.9812799 -0.98387468 0.90415156 0 1.0037693 -0.031319004 -0.11048552 0.0093765184
-1.7354568 -0.96473885 0.92077202 0 1.0178378 0.99240273 -0.24589051 0.009808314
4.9774556 -0.95979822 0.9091537 0 1.0078152 0.18702622 -0.076962501 0.0081072468
4.9754896 -0.93747056 0.91436118 0 0.99962521 0.014692892 0.10239902 0.0075624064
4.9758372 -0.9337908 0.91205055 0 0.99758714 -0.021376977 0.17115258 0.0077118855
4.9756522 -0.92235839 0.91754866 0 0.99805677 -0.063826844 0.030056387 0.0074874558
4.9772997 -0.90944278 0.9186812 0 0.99354547 -0.17252859 -0.03497098 0.0073079527
4.9811349 -0.88608384 0.92315865 0 0.99638486 -0.087419197 -0.064003453 0.0076689129
4.9821076 -0.85943925 0.91267467 0 0.99461478 -0.14483452 -0.052609816 0.0072580962
4.9869514 -0.83349192 0.90285718 0 1.0045093 -0.18243584 0.061813168 0.013905592
4.9893312 -0.81003445 0.90319389 0 1.0104642 -0.025775343 0.18711606 0.024182925
4.983665 -0.78143656 0.91147453 0 0.96816057 0.25523096 0.13864131 0.025728088
4.9736328 -0.75664455 0.91354686 0 0.90645981 0.49679059 0.20240423 0.029848289
4.9613142 -0.73548347 0.91346914 0 0.90862501 0.52034712 0.12982358 0.040499602
4.9499683 -0.71254909 0.91818768 0 0.97011983 0.27363616 0.12742727 0.052096531
4.950881 -0.68378502 0.91770995 0 0.97112346 -0.33389151 0.10835913 0.049322437
4.96245 -0.66487414 0.90500444 0 0.90737337 -0.53259093 0.27066413 0.039217111
4.9738741 -0.64100826 0.91503519 0 0.90834743 -0.47757781 0.14980283 0.025456566
4.9852467 -0.61624408 0.9129703 0 0.9429915 -0.3355425 0.069887884 0.014690332
4.9925742 -0.58718282 0.90922731 0 0.99255794 -0.13378145 0.043757088 0.0099592963
4.9945974 -0.56228608 0.91188794 0 0.99798894 -0.073527291 0.0043629915 0.0050984179
4.996326 -0.53803337 0.90413946 0 0.9988935 -0.04973004 -0.018561924 0.0034440646
4.9967871 -0.51455688 0.90490651 0 1.0008249 0.025967445 -0.018838692 0.002667835
4.9947824 -0.4883742 0.90848315 0 1.0005779 0.082333274 -0.050169066 0.0025697052
4.9929991 -0.45716733 0.90976655 0 1.0004838 0.048441943 -0.016157135 0.0022190928
4.9925008 -0.44554389 0.91176254 0 1.0004696 0.040451754 -0.011601664 0.0022518679
4.9925284 -0.41013315 0.91665787 0 0.99995577 -0.047110979 -0.075335562 0.0019752383
4.9942842 -0.38894033 0.91978562 0 1.0025368 -0.10841211 -0.086875275 0.0020010595
4.9976554 -0.36429733 0.92014474 0 1.0075983 -0.10380152 -0.0217952 0.0028566099
4.9980726 -0.33697113 0.92049581 0 0.99813879 0.055350471 -0.090744168 0.0038422765
4.9931889 -0.30966657 0.91631657 0 0.96446317 0.26405928 -0.15536952 0.0052821077
4.9854054 -0.28452924 0.92165571 0 0.93872815 0.3455911 -0.14980188 0.0056662331
4.9782929 -0.26572776 0.92064035 0 0.93523026 0.34547311 -0.13945299 0.0048712878
4.9653535 -0.23616084 0.91455162 0 0.89653027 0.43562862 -0.11151831 0.0059730755
4.9478669 -0.20449179 0.91362298 0 0.84124428 0.53854507 -0.05542193 0.0068696123
4.9534135 -0.21283659 0.91709799 0 0.86124331 0.49381325 -0.180941 0.0072462386
4.9361515 -0.18692027 0.9171859 0 0.79638332 0.60010582 -0.10378963 0.0084804017
0.72238386 -0.1578885 0.90187216 0 0.82915843 -0.98784578 -0.084592551 0.012070095
4.3898044 -0.16482483 0.91390622 0 -0.49360299 -0.87258327 -0.038181122 0.043134309
4.4050274 -0.17017595 0.91418582 0 -0.16977982 -0.99529201 0.021335322 0.051454354
4.4449806 -0.163821 0.92047036 0 0.41553599 -0.99379069 0.14367102 0.049937051
4.9076166 -0.1566205 0.92268723 0 0.73949307 0.66861409 -0.12205704 0.0092041204
0.73213309 -0.12758301 0.90509522 0 1.0518653 -0.02973499 0.0093766851 0.020011766
2.5723617 -0.13860695 0.91734719 0 -0.68229681 -0.80952257 -0.068935312 0.056983776
2.5897954 -0.14871894 0.9159252 0 -0.32793084 -0.9665885 0.042963419 0.082740866
2.6110806 -0.14818731 0.91703814 0 0.37493083 -0.95196235 0.23553631 0.080462791
2.6277132 -0.13699591 0.91806936 0 0.72770107 -0.82556498 0.41419357 0.061511744
3.1631296 -0.12725332 0.92266935 0 -0.5207231 -0.93033642 0.072429098 0.030418873
3.193821 -0.13542676 0.92003351 0 0.09841802 -0.99345273 0.11771005 0.0372063
3.2068791 -0.13292177 0.91417688 0 0.38487032 -0.96395689 0.11894525 0.033448473
3.7600343 -0.12986577 0.91103345 0 -0.5480513 -0.89480835 -0.084449023 0.033230811
3.7848284 -0.13857698 0.90708393 0 -0.12496662 -0.99465662 -0.11401077 0.049844697
3.818625 -0.13091257 0.91914183 0 0.49961624 -0.93260843 -0.1676797 0.047026481
4.3665237 -0.13991491 0.91513455 0 -0.92271078 -0.5896188 -0.048200242 0.022102496
4.8738275 -0.12534149 0.90629601 0 -0.53326797 -0.85885859 -0.22524215 0.010818808
4.8896203 -0.1351998 0.90246564 0 -0.62442523 -0.79586393 -0.25189877 0.0097655766
0.11383642 -0.10344631 0.92117143 0 0.97358161 -0.21873118 -0.065539852 6.5933095e-15
0.73236966 -0.11464772 0.90808499 0 1.0641698 -0.0578897 0.077088058 0.025771681
1.9644644 -0.10480475 0.91414118 0 0.15882976 -0.99509507 -0.38060254 0.033679057
2.5489814 -0.11541373 0.91996598 0 -0.80527276 -0.7368592 -0.13975927 0.033790532
2.5540259 -0.11908922 0.90991706 0 -0.81412762 -0.73183572 -0.13220629 0.039858595
2.657218 -0.1132035 0.9101209 0 0.70050323 -0.77901572 0.22856645 0.022158552
3.1317406 -0.10559661 0.9218291 0 -0.51284504 -0.90428632 0.0020724237 0.014164239
3.237314 -0.11278547 0.92137718 0 0.62174654 -0.8905921 0.048497926 0.016085735
3.7164233 -0.10065602 0.91821635 0 -0.36877042 -0.92266643 0.22133285 0.011377818
3.7369576 -0.11333613 0.90683132 0 -0.58662724 -0.86223888 -0.020186216 0.017138533
3.8381214 -0.11825659 0.91975278 0 0.65668505 -0.84433764 -0.081387311 0.026723178
3.8522899 -0.10656123 0.91761339 0 0.67342651 -0.83413059 -0.016242834 0.019245604
4.3486881 -0.1123713 0.91775131 0 -0.83575988 -0.63561827 0.03615215 0.017346239
4.5631313 -0.10888954 0.90456927 0 0.29795021 -0.97054684 -0.56535888 0.007991028
4.8333011 -0.10597033 0.90899241 0 -0.43121159 -0.90792125 -0.17861779 0.011470091
4.856389 -0.11604436 0.90799326 0 -0.43948966 -0.91031927 -0.18346915 0.010669416
0.45467615 -0.080840141 0.91241109 0 -0.65261298 -8.0870247 -0.45007142 0.10579901
0.47893462 -0.080282643 0.91719872 0 -2.2861948 0.61733174 0.38512599 0.082526363
0.74104548 -0.08388418 0.90261936 0 1.0371262 -0.29729089 0.074078433 0.041687291
1.3127997 -0.082847938 0.90894806 0 -0.33973268 -0.99019098 0.39485702 0.042771097
1.3404503 -0.08059983 0.90928429 0 0.45793742 -0.96307099 0.35713765 0.035099115
1.9253113 -0.083624892 0.91415638 0 -0.9327901 -0.79242188 -0.57433486 0.019467546
1.9950707 -0.09034092 0.91971791 0 0.73483086 -0.91572165 -0.0057774368 0.02407196
2.0123763 -0.077183165 0.9085198 0 0.60061246 -0.91331685 -0.0066572307 0.015839731
2.4795556 -0.075167261 0.91545081 0 -0.085693598 -1.0136915 0.011133965 0.016858196
2.5094252 -0.081981823 0.91566908 0 -0.40832865 -0.9158361 -0.052709155 0.018935271
2.5293722 -0.094777331 0.91581225 0 -0.66445124 -0.78855056 -0.11012983 0.017703438
2.6904793 -0.089669906 0.91688943 0 0.35312238 -0.93446553 0.050455764 0.02324933
2.7188566 -0.083621971 0.91787773 0 0.038538046 -1.0112268 -0.041877754 0.018320123
2.7451775 -0.084451593 0.91821086 0 -0.065351054 -1.0092468 -0.12984481 0.010330703
2.7620983 -0.085701101 0.91826177 0 -0.080653839 -1.004302 -0.14259322 0.0065202462
2.7893443 -0.087789819 0.91933411 0 -0.048429471 -1.0007854 -0.14173594 0.0020417497
2.81637 -0.088439003 0.91841096 0 -0.015660632 -1.0009882 -0.1307925 0.0016097152
2.8401532 -0.089157254 0.92007017 0 -0.035266377 -1.0000136 -0.14016847 0.0015809265
2.8587277 -0.089801244 0.91976494 0 -0.040223576 -1.0001934 -0.18022108 0.0019044316
2.8911214 -0.09091527 0.92112285 0 -0.0015039708 -1.0013596 -0.19529867 0.0023582615
2.9075799 -0.090543702 0.91928303 0 0.00057250087 -1.0007524 -0.18968569 0.0025115234
2.9302487 -0.091246761 0.92175251 0 -0.027193498 -1.0007894 -0.19969229 0.0023754458
2.9599509 -0.092607282 0.92181557 0 -0.040921867 -1.001331 -0.21540578 0.0025777917
2.9909446 -0.093053952 0.9227643 0 0.018831236 -1.0025876 -0.22406454 0.0027241784
3.0163951 -0.092601083 0.9238413 0 0.028612034 -1.0047066 -0.19923864 0.0030710786
3.0368981 -0.092130356 0.92361087 0 0.012261817 -1.0065387 -0.17868958 0.0040321159
3.0578718 -0.092126653 0.92360121 0 -0.0081548188 -1.0128198 -0.15407503 0.0092053264
3.0889208 -0.092936687 0.92347103 0 -0.071013033 -1.009118 -0.051490422 0.010886459
3.1079261 -0.09561839 0.92029488 0 -0.23479992 -0.97317529 -0.018454114 0.0088668186
3.264127 -0.099386096 0.91621548 0 0.29020831 -0.95533788 0.11606895 0.0087852497
3.2906942 -0.095801048 0.91747802 0 0.023133548 -1.0083363 0.22058593 0.010424308
3.3149414 -0.09632773 0.91716993 0 -0.040645547 -1.0022384 0.22121823 0.0062872614
3.3383279 -0.097010657 0.9167878 0 0.00070256583 -0.99410629 0.20165098 0.0032133332
3.3636487 -0.096362151 0.91675466 0 0.020021852 -0.99289393 0.17877533 0.00047048775
3.3845279 -0.096322678 0.91606194 0 -0.0032227272 -0.9933306 0.16964532 0.00041378001
3.4147894 -0.096391916 0.91802096 0 0.012604112 -0.98947269 0.24943516 0.00050811074
3.4357955 -0.095757127 0.91797733 0 0.038317852 -0.98860735 0.24854703 0.00050486479
3.4667349 -0.094727494 0.91779727 0 0.018834978 -0.98965919 0.22825368 0.00048098445
3.4845781 -0.094290212 0.9184323 0 0.018207652 -0.98925227 0.23347698 0.00050202361
3.5054083 -0.093565524 0.91941917 0 0.027834605 -0.98934573 0.22252385 0.00050246401
3.5279069 -0.092839174 0.91931802 0 0.035585832 -0.98964661 0.21169987 0.00055711396
3.5568666 -0.091874257 0.91982102 0 0.016598709 -0.98991501 0.20314127 0.00046617724
3.5821319 -0.091633514 0.92007923 0 0.0082552684 -0.99073958 0.18810347 0.00058723433
3.6118734 -0.090816155 0.92048573 0 0.021670194 -0.99047148 0.1923936 0.0011794311
3.6385887 -0.090390839 0.9211753 0 -0.0080978116 -0.98912513 0.24206509 0.0044753924
3.6712635 -0.091815986 0.92222846 0 -0.045594405 -0.9895525 0.3437199 0.011919866
3.6992674 -0.09438061 0.92287564 0 -0.18286675 -0.97556412 0.35608399 0.014021924
3.8941162 -0.086922228 0.9040072 0 0.1769346 -0.98610866 0.045897715 0.014779923
3.9158633 -0.084972106 0.9024564 0 0.02359258 -1.008244 0.096740879 0.011876979
3.9430301 -0.084583625 0.90716547 0 -0.016015483 -0.99692935 0.13604678 0.0045077726
3.9579971 -0.085012816 0.90655208 0 -0.030477488 -0.99290079 0.18941151 0.0030727002
3.9815304 -0.085692108 0.90727979 0 -0.02816953 -0.99222869 0.17342044 0.0013689335
4.0122914 -0.085541844 0.90907228 0 0.029118512 -0.99545872 0.098093018 0.0013660152
4.0366564 -0.084824905 0.90598589 0 0.028977666 -0.99163634 0.16650169 0.001518613
4.0661631 -0.084554225 0.90653902 0 0.049117412 -0.99213219 0.14749822 0.0015034752
4.088129 -0.082951106 0.9066838 0 0.095095858 -0.9913733 0.1360632 0.0015821882
4.1025338 -0.081620142 0.90670025 0 0.070797935 -0.99283165 0.13661283 0.0015546138
4.1387663 -0.083337128 0.90748727 0 -0.011408887 -0.9977935 0.10434676 0.0011963622
4.1830535 -0.079593465 0.9090783 0 0.15188576 -0.99463987 0.025278164 0.0010067403
4.2190719 -0.079362936 0.90980458 0 0.033469874 -1.0004187 0.0027018902 0.0019566023
4.2647915 -0.077573299 0.91067421 0 0.012041006 -1.0088099 0.11811709 0.015355175
4.2871623 -0.079049766 0.901299 0 -0.080476686 -1.0164034 0.020796448 0.026150748
4.31077 -0.083773337 0.91076249 0 -0.31649396 -0.96149927 -0.015604344 0.029546209
4.3275137 -0.091354147 0.9060657 0 -0.53738612 -0.8509112 -0.096980356 0.025951473
4.5855618 -0.099031247 0.9036079 0 0.40580326 -0.92895669 -0.13745371 0.0101997
4.6056457 -0.090504676 0.90374148 0 0.37969249 -0.94489068 0.0071872878 0.008670561
4.6441226 -0.080074735 0.90662593 0 0.038937882 -0.99872977 0.077511802 0.003972121
4.668386 -0.08040534 0.90735459 0 -0.020737655 -1.0025245 0.057814706 0.0042517809
4.6915011 -0.07997179 0.91572255 0 0.02568561 -1.0000011 0.018972786 0.0030137936
4.7055349 -0.079492301 0.91207355 0 0.027737217 -1.0032625 -0.062271461 0.0038376369
4.7387714 -0.08107508 0.9145447 0 -0.08307939 -0.99921429 -0.05552863 0.0051923199
4.7717977 -0.085511215 0.9158594 0 -0.092559241 -0.99881375 0.0027377328 0.00968106
4.7829914 -0.086574301 0.91295302 0 -0.14080508 -0.99717849 -0.10837197 0.010665545
4.8135562 -0.096834034 0.91137207 0 -0.40531453 -0.91960406 -0.12867393 0.011237424
0.38938183 -0.063856848 0.91293389 0 -1.8727984 6.022687 4.1858907 0.10894359
0.46016276 -0.058060072 0.9134506 0 -0.38458163 -0.06789504 3.7118301 0.16266873
0.48458934 -0.051391076 0.91535646 0 -16.293753 3.122746 4.7148442 0.13790384
0.74604839 -0.068099983 0.90639949 0 0.97266942 -0.38642472 0.028442485 0.04435385
0.75353992 -0.053777959 0.90629101 0 0.83832961 -0.57569659 -0.0066403425 0.048835214
1.2637715 -0.054272186 0.92282462 0 -0.36830264 -0.92248291 -0.40567496 0.012392095
1.2985163 -0.073324047 0.91975498 0 -0.50011617 -0.92391545 0.18793319 0.029887727
1.3639934 -0.062840231 0.91484243 0 0.65881598 -0.87918073 0.14007586 0.023340903
1.8866009 -0.05044584 0.92111796 0 -0.21665975 -0.97993147 -0.068997934 0.0083885565
2.0211973 -0.071235776 0.92244321 0 0.48616278 -0.92765415 0.067198113 0.013157464
2.0312698 -0.066833757 0.91224247 0 0.39856079 -0.94170612 0.0070236316 0.0094052777
2.0560434 -0.060112331 0.92095286 0 0.15277503 -0.98921359 -0.045194156 0.010459039
2.0874631 -0.058820359 0.92139047 0 -0.03825083 -1.0069022 -0.12904273 0.0080527943
2.1138244 -0.06048429 0.92229831 0 -0.043795321 -1.0022624 -0.1839333 0.0027019507
2.1377287 -0.061299808 0.92171067 0 -0.05875621 -1.0003161 -0.17987421 0.0010645466
2.1533024 -0.062363051 0.92098188 0 -0.090656623 -0.99812883 -0.1686617 0.00050581555
2.1797192 -0.064860083 0.9214825 0 -0.074367903 -0.99881607 -0.14988409 0.00041829442
2.2047758 -0.066081375 0.92191595 0 -0.010350005 -1.0015439 -0.11070325 0.00041408907
2.2332306 -0.065387972 0.92085695 0 0.0013051045 -1.0019531 -0.076288469 0.00043284355
2.2627957 -0.06689024 0.9227227 0 -0.052846942 -1.0001074 -0.049123839 0.00039692328
2.2896838 -0.068357348 0.92349952 0 -0.065475747 -0.9998222 -0.025560278 0.00051019184
2.3198335 -0.070200957 0.92162079 0 -0.021088567 -0.99990141 0.012127991 0.00046742384
2.3397253 -0.070371866 0.92230254 0 -0.0020228093 -1.0003257 0.020822862 0.00047014942
2.3652143 -0.07081297 0.91317409 0 -0.020850234 -0.99996358 0.013912264 0.00057534693
2.3882506 -0.071727291 0.91440994 0 -0.057274576 -0.9986217 0.019044461 0.00060301844
2.4220631 -0.073742524 0.91442436 0 -0.045320708 -0.99941564 0.019263199 0.0027395028
2.4420021 -0.074297048 0.9152146 0 -0.0098344777 -1.0069741 0.015838113 0.0068619922
2.4551206 -0.074354373 0.91534972 0 -0.0044915434 -1.0104848 0.018970137 0.0083439099
0.76181203 -0.044330105 0.91074449 0 0.66987592 -0.74290001 -0.00083473168 0.047176838
0.78420353 -0.031815104 0.90780556 0 0.31572697 -0.97966307 0.018801006 0.048958275
0.80744678 -0.027062681 0.91014689 0 0.11599429 -1.0133961 0.043221924 0.032101151
0.83441335 -0.025279189 0.91039872 0 0.0034887365 -1.0123557 0.01143688 0.015191094
0.86055803 -0.026054954 0.91070241 0 -0.012261936 -1.0024552 0.020079663 0.0042910283
0.9188031 -0.025175532 0.9042694 0 -0.028273718 -0.99990934 -0.039399453 0.00038407499
0.93605661 -0.025891064 0.91061133 0 -0.025545072 -0.99965841 -0.05064258 0.00040656014
0.96324843 -0.026034378 0.90944582 0 0.021363912 -0.99871129 -0.082980879 0.00039604949
0.98905563 -0.025332732 0.90988326 0 0.0035215013 -0.99859715 -0.081185214 0.00034639754
1.0089562 -0.025622243 0.91194737 0 -0.00095234736 -0.99866033 -0.075539179 0.00034015279
1.1146961 -0.026165448 0.91323602 0 -0.043829124 -0.9986577 -0.061641186 0.00060406525
1.1407436 -0.026357237 0.90425652 0 -0.0078853015 -1.0002706 -0.087043211 0.0022528337
1.1551205 -0.027233649 0.91240263 0 0.0041049286 -1.0023222 -0.12099276 0.0034481199
1.18849 -0.026313078 0.9102813 0 -0.026220769 -1.0055465 -0.15404852 0.0045558815
1.2202184 -0.031567995 0.91321421 0 -0.35420609 -0.93719989 -0.22132808 0.0094623975
1.2370003 -0.036653403 0.90400952 0 -0.38279265 -0.92711586 -0.094979949 0.0085650021
1.3951273 -0.04141102 0.91555256 0 0.44391015 -0.91508287 -0.044509243 0.013595716
1.4136268 -0.035263851 0.91587335 0 0.19906524 -0.98497415 -0.09478534 0.013315342
1.4331805 -0.033375472 0.91560763 0 -0.00038249808 -1.0184295 -0.11965558 0.013309043
1.4565878 -0.03489615 0.9152441 0 -0.10287332 -1.0168546 -0.11769094 0.0085456362
1.4817002 -0.037388522 0.91604698 0 -0.087450393 -1.0020311 -0.1087976 0.0032829843
1.5108094 -0.03903614 0.91597509 0 -0.0047178045 -1.0005897 -0.099664755 0.00050856604
1.5367843 -0.038582016 0.91744518 0 0.018101206 -1.0021369 -0.10961843 0.00042937172
1.5613707 -0.038553495 0.91687036 0 -0.027066251 -1.0003549 -0.10794336 0.00043918411
1.5807077 -0.039469693 0.91716164 0 -0.059705433 -0.99889463 -0.11012641 0.00041393039
1.6088177 -0.041502696 0.91812187 0 -0.074292481 -0.99880701 -0.10829432 0.00049229024
1.6344458 -0.043345507 0.91699964 0 -0.079113208 -0.99822563 -0.090699211 0.00038001323
1.6606432 -0.045269642 0.91720414 0 -0.037901063 -0.99967152 -0.095776662 0.00041706522
1.6908767 -0.04516577 0.9180845 0 0.026609406 -1.0008349 -0.066513643 0.00043294445
1.7143347 -0.044612661 0.91851193 0 0.015659751 -1.0004855 -0.046080444 0.00040483475
1.7295787 -0.044462476 0.91691607 0 -0.0087451423 -1.0001729 -0.055033501 0.00039611457
1.7589555 -0.045783874 0.91832536 0 -0.043893807 -0.99962729 -0.050141398 0.00039304292
1.7888138 -0.046443101 0.91822368 0 0.00054388761 -1.0009652 -0.06605947 0.00051954831
1.8150579 -0.04629999 0.9196229 0 0.0078463787 -1.0041481 -0.048959907 0.0038458158
1.8294431 -0.045866672 0.91022635 0 -0.021969113 -1.003382 -0.056991305 0.0048884945
1.8622921 -0.047496263 0.91500807 0 -0.046001311 -1.01188 -0.03860217 0.010428729
1.8786278 -0.048511032 0.91044176 0 -0.1211566 -1.0053291 -0.043640353 0.0104467
0.39646697 -0.014439798 0.91473168 0 0.47113284 1.4478401 -0.29526627 0.12939163
0.40380147 -0.015600226 0.91788292 0 -0.3736603 -0.74946046 0.71816492 0.098332904
0.46963388 -0.010999546 0.91573679 0 -1.0905933 -2.5939326 0.1705675 0.094126493
0.52811778 -0.016975842 0.90610033 0 13.046066 3.7532322 -5.8002648 0.095315538
0.88909388 -0.024990115 0.91191071 0 0.018960303 -0.99980831 -0.035599634 0.00056189916
1.0382202 -0.024776237 0.91149354 0 0.022126852 -0.99827516 -0.11041864 0.00035826029
1.0714378 -0.024769178 0.91195792 0 -0.016234186 -0.99854469 -0.096683003 0.00045596881
1.0802486 -0.024208235 0.90340585 0 -0.032226346 -0.99856746 -0.082618579 0.00045623773
0.40474477 0.0052669351 0.91694778 0 -0.42527342 -2.0017321 -3.1305974 0.12939163
-1.7832351 -4.1390505 0.94835478 0 1.0075192 -1.79814 0.38316867 0.0093819816
-1.7745546 -4.1365805 0.94292533 0 1.1383414 -1.9834226 1.2254168 0.0090575693
-1.7862667 -4.1079335 0.93717569 0 1.2057545 0.33945209 2.4747951 0.0082210517
-1.7811203 -4.0873175 0.94249862 0 1.0346575 -0.29784697 0.18890883 0.0099817114
-1.7675523 -4.0571012 0.93030113 0 1.1063656 0.42610231 1.7787948 0.0092363721
-1.7798909 -4.0431824 0.9351669 0 1.0380487 0.35003322 1.2175424 0.009954433
-1.779608 -4.0137978 0.92812032 0 1.0229464 0.018753298 0.63803303 0.012799004
